# .PCD v0.7 - Point Cloud Data file format
VERSION 0.7
FIELDS x y z
SIZE 4 4 4
TYPE F F F
COUNT 1 1 1
WIDTH 1613
HEIGHT 1
VIEWPOINT 0 0 0 1 0 0 0
POINTS 1613
DATA ascii
0.54331672 1.0311522 0.76936328
0.54313964 1.0488501 0.7695123
0.54317933 1.0698193 0.76960683
0.544038 1.0902501 0.77056271
0.54353589 1.1102408 0.77061599
0.53968 1.1359 0.76124001
0.54336035 1.1297107 0.77065897
0.54424572 1.1495651 0.76985174
0.54397005 1.169844 0.77045596
0.54406756 1.1896751 0.76928878
0.54411709 1.2084481 0.76940227
0.54430461 1.2297039 0.77025187
0.54475582 1.2504616 0.77027309
0.54473782 1.2701857 0.76970679
0.54457968 1.2898132 0.76994765
0.54562712 1.3100959 0.77008826
0.54501414 1.3300769 0.77032471
0.5457781 1.3500334 0.77081972
0.54168427 1.016857 0.78957713
0.54353207 1.0300068 0.78930449
0.54382348 1.0500863 0.79059207
0.54311162 1.0693835 0.79100978
0.54426283 1.0904787 0.79025733
0.5440495 1.1101682 0.79046363
0.54386681 1.1294391 0.79057491
0.54439181 1.1501424 0.79067427
0.54398137 1.1701068 0.7910127
0.5441404 1.190268 0.7895928
0.54410774 1.2099334 0.78943068
0.54477006 1.2302117 0.79047525
0.54406971 1.2498407 0.78957051
0.54491419 1.2705032 0.79094517
0.54483062 1.2902733 0.79062712
0.54493403 1.3103 0.78923792
0.54497653 1.3311471 0.78891557
0.5393725 1.01395 0.81541502
0.54209501 1.0164499 0.804775
0.54312575 1.0293283 0.81060499
0.54407674 1.0503122 0.81033403
0.5438866 1.0693609 0.81085867
0.54309595 1.0902065 0.80935323
0.54298037 1.1102285 0.80946165
0.54416353 1.130338 0.81071448
0.54402041 1.1480039 0.81011879
0.54435211 1.16985 0.8109979
0.54460305 1.1897088 0.80969942
0.54460758 1.2108822 0.80932319
0.54387003 1.2308463 0.80911839
0.54452193 1.2510308 0.8089785
0.54535872 1.2695084 0.81088251
0.54521722 1.2895639 0.81059992
0.53879499 1.0127499 0.83368498
0.5418275 1.0166 0.83117497
0.54306078 1.0303921 0.82962126
0.5439896 1.0499585 0.82916081
0.54381281 1.0692822 0.83009672
0.54378825 1.090269 0.83028078
0.54386002 1.1102592 0.83017075
0.54387403 1.1295761 0.8297509
0.54431379 1.150031 0.82982802
0.54412502 1.1699436 0.82985067
0.54431003 1.1898898 0.82985103
0.54436731 1.2097622 0.83019215
0.54446524 1.2296742 0.8297767
0.54451144 1.2495606 0.82878965
0.53728664 1.0131 0.85780668
0.54225004 1.016575 0.84996879
0.54339075 1.0301223 0.85018706
0.54383892 1.0503966 0.84976584
0.54317546 1.0694578 0.8506062
0.53991997 1.0934 0.85025001
0.54378265 1.08935 0.85084879
0.54376251 1.1095124 0.84991717
0.54380488 1.1294771 0.84962374
0.54388845 1.1508768 0.8501969
0.54357469 1.1705077 0.84997582
0.54379898 1.1908408 0.84909874
0.54411137 1.2086931 0.84956551
0.54496473 1.2295291 0.84976989
0.53824329 1.0122 0.87408662
0.54103291 1.0171001 0.87050998
0.54305381 1.0301667 0.86968791
0.53896999 1.04755 0.86680001
0.54295266 1.0493668 0.87041032
0.54331881 1.070796 0.8694154
0.54295105 1.0897322 0.86908966
0.54379308 1.1101063 0.86906594
0.53975999 1.1204 0.86375999
0.54400742 1.1297407 0.87060302
0.54390937 1.1504345 0.87084502
0.5432862 1.1705217 0.87123185
0.54369169 1.1903834 0.86926907
0.54394841 1.209113 0.86919415
0.53866249 1.013025 0.89020252
0.54167372 1.0167251 0.88995624
0.54275221 1.0308291 0.89094186
0.54341149 1.0510036 0.89021486
0.5434773 1.06932 0.88910425
0.543594 1.0899367 0.88862872
0.5436464 1.1096997 0.89048237
0.54370546 1.1296911 0.8898856
0.54399592 1.1486075 0.88935137
0.54396039 1.1700678 0.89074242
0.53883004 1.0155001 0.91095495
0.54073572 1.0152143 0.91097295
0.54278767 1.0301772 0.91056502
0.54343665 1.0498297 0.91143709
0.54333097 1.0698844 0.90953219
0.5432362 1.0902241 0.91031873
0.54356605 1.1096572 0.91026551
0.54366297 1.1301701 0.91097444
0.54393566 1.1504167 0.9091922
0.54198426 1.0167857 0.92957717
0.5430432 1.0297482 0.92939782
0.54329169 1.049264 0.92922723
0.54303002 1.0699072 0.92836386
0.54339117 1.0901563 0.93040001
0.54378426 1.1104934 0.93050772
0.54341727 1.1299192 0.93018281
0.53865004 1.0141499 0.95043004
0.54165894 1.0166001 0.94995564
0.54311073 1.0303999 0.9506616
0.53959 1.0583 0.94744003
0.54318935 1.0488334 0.94937491
0.54316348 1.0702001 0.94970965
0.54391146 1.0895808 0.94963539
0.53866452 1.0145444 0.97101444
0.541776 1.0174601 0.96694791
0.54277039 1.0314896 0.97097862
0.53865999 1.0456001 0.96872997
0.5436343 1.0513999 0.9695856
0.53903002 1.0119667 0.99064332
0.54111201 1.01668 0.990358
0.54307854 1.0289069 0.99071038
0.53904337 1.0157334 1.0066333
0.54209715 1.0172714 1.0110856
0.53918505 1.0297 1.0157499
0.53946251 1.01565 1.027925
0.53871596 1.0141001 1.04882
0.41596001 1.6198 1.1059
0.41413 1.6227 1.1054
0.40788665 1.8944 1.1169667
0.42933667 2.1102002 1.1175001
0.45791 2.1204 1.1191
0.36412999 3.0371001 1.1168
0.40253001 3.0806999 1.1195
0.41289556 1.6121 1.1302112
0.42787427 1.6118429 1.1294143
0.45061663 1.6124444 1.1293111
0.46778703 1.6116199 1.12989
0.49330667 1.6164666 1.1279334
0.49426001 1.6236501 1.1285501
0.43774334 1.7974666 1.1311001
0.472635 1.8759501 1.1345
0.44775754 1.8958501 1.125025
0.46459001 1.8834 1.1321
0.47004333 1.9053332 1.1322333
0.43356502 2.0994 1.1278501
0.44392502 2.0935001 1.1292
0.42756209 2.1108878 1.1318791
0.44945797 2.1175199 1.12204
0.46362001 2.1085999 1.1245999
0.42996314 2.1297565 1.1343251
0.44318059 2.1303625 1.1287
0.46391401 2.12624 1.12456
0.43189126 2.1455877 1.1323249
0.44486499 2.1425831 1.1306666
0.36726248 2.2129998 1.127375
0.3843517 2.2156668 1.1285833
0.4111 2.2173669 1.1294667
0.42731857 2.213057 1.1286285
0.45447999 2.2110751 1.12825
0.37358999 2.2275875 1.12975
0.38493398 2.2292202 1.12902
0.40399364 2.2312911 1.1287909
0.43264332 2.2298002 1.1293999
0.45004591 2.2321916 1.1293417
0.37974501 2.2433 1.1294501
0.38858128 2.2513125 1.1306375
0.40826181 2.2502089 1.1298274
0.43220848 2.2511923 1.1296384
0.45210999 2.25125 1.129925
0.37727499 2.2641001 1.1305001
0.39201835 2.2695835 1.1295
0.41016665 2.2708082 1.129125
0.43508202 2.27354 1.1305799
0.44788 2.2704751 1.12895
0.36305001 2.2872832 1.1298833
0.38780099 2.2893801 1.12923
0.41402829 2.2873666 1.1290166
0.43304667 2.2902668 1.1302667
0.44814003 2.291225 1.1290916
0.36849749 2.3148501 1.128425
0.39160749 2.30615 1.13025
0.40923858 2.3082283 1.1295
0.43044627 2.3091376 1.1299875
0.45235834 2.3034666 1.13
0.39136428 2.3283002 1.1301857
0.40933999 2.3310001 1.1291
0.42839336 2.3301668 1.1301666
0.44399667 2.3320668 1.1301999
0.36257401 2.3519399 1.1278801
0.38933334 2.3547001 1.1287667
0.40712816 2.3507545 1.1300818
0.43261251 2.3499749 1.1301584
0.44997627 2.3485374 1.1296624
0.36356333 2.3741 1.1290332
0.38615501 2.3731 1.1294
0.40760726 2.3716726 1.1299
0.431858 2.36764 1.1306
0.45483798 2.36882 1.1295801
0.36684147 2.3893569 1.1298143
0.4052825 2.3873377 1.13015
0.43024445 2.3906558 1.1313
0.44818667 2.3895667 1.1305
0.36906001 2.4054501 1.1293167
0.39617002 2.4015999 1.1307
0.41940001 2.4000001 1.1324
0.42951268 2.4094453 1.1318183
0.446742 2.4092402 1.13067
0.35373601 2.4351799 1.1298001
0.37214857 2.4280429 1.1292858
0.38440999 2.4338667 1.1307999
0.40450999 2.4245 1.1323
0.42398569 2.4308717 1.1311285
0.45083082 2.428108 1.1302167
0.36099499 2.4498999 1.127
0.39231125 2.448025 1.1301125
0.41134501 2.4505332 1.1305999
0.42950666 2.4461 1.1312166
0.44858161 2.4492416 1.1299082
0.3506591 2.4715457 1.1304181
0.36384502 2.46525 1.130525
0.39098874 2.4736123 1.1324625
0.41342229 2.4724846 1.1312617
0.4295567 2.4669499 1.1303333
0.44786093 2.4691727 1.1296364
0.375175 2.4806499 1.1379
0.392243 2.4819703 1.13585
0.40675724 2.4924498 1.1339778
0.42872715 2.4877999 1.1314142
0.41377112 2.5089631 1.134479
0.42845833 2.5146832 1.1304168
0.41275471 2.5279179 1.1344824
0.43088222 2.5286891 1.1317668
0.391352 2.55318 1.1344
0.40858221 2.5494776 1.1337334
0.43013498 2.5544748 1.1318001
0.37612 2.5768499 1.1327
0.38568601 2.5689399 1.1317999
0.41265249 2.567975 1.1324
0.43083748 2.574625 1.1323
0.34847331 2.5904834 1.1311666
0.37577498 2.5896001 1.13305
0.38972834 2.5924752 1.1321666
0.4348357 2.5906284 1.1310856
0.35496801 2.6143601 1.1319801
0.36712 2.618 1.1313
0.38572499 2.6107249 1.132475
0.41713601 2.6114399 1.13396
0.426835 2.6115749 1.1325625
0.34664139 2.6303999 1.1316429
0.370646 2.63042 1.1333201
0.389395 2.6299503 1.1336874
0.406948 2.6347599 1.1321599
0.4288075 2.6275127 1.1325874
0.37626499 2.6418252 1.1367
0.39463183 2.6476271 1.1357454
0.40860358 2.6512427 1.1344358
0.42991 2.6480899 1.13167
0.40996999 2.6679537 1.1360308
0.43241233 2.6720538 1.1322384
0.41038498 2.6881201 1.13696
0.42371333 2.6925445 1.1334667
0.39589 2.7188001 1.1324
0.40711999 2.7044001 1.1356667
0.42927665 2.7114334 1.1343111
0.37684003 2.7305 1.1335
0.39785668 2.7267334 1.1333333
0.41402 2.7257252 1.1342001
0.43271282 2.730757 1.1344715
0.35312 2.7471001 1.1355
0.37842 2.7473001 1.13565
0.38928717 2.7532001 1.1329142
0.40935001 2.7499499 1.1340499
0.43413857 2.7470431 1.1341143
0.33652601 2.7704 1.1333801
0.35365999 2.7723751 1.1336
0.36183 2.7648001 1.135
0.39350501 2.7690501 1.1337125
0.41083002 2.77595 1.1315
0.424945 2.7684751 1.13305
0.35243803 2.7893798 1.13362
0.36109999 2.7858 1.1313
0.39012298 2.78952 1.1347201
0.41038889 2.7869887 1.1342334
0.374286 2.80318 1.1363599
0.39152998 2.8066602 1.13504
0.41289702 2.8082399 1.1344401
0.42052001 2.8183999 1.1324
0.3504 2.8348498 1.13385
0.39497399 2.8307197 1.1362799
0.418145 2.8282251 1.135975
0.427865 2.8272002 1.1362749
0.35295999 2.8405499 1.1349001
0.373225 2.8559 1.135
0.4086833 2.8437335 1.1353333
0.35072598 2.8677602 1.13516
0.37812001 2.8736 1.1363
0.39212552 2.8699002 1.1356223
0.37521401 2.8942199 1.1364599
0.39375001 2.892225 1.1366249
0.40869167 2.8964002 1.1376333
0.33680999 2.9181001 1.1386
0.3462525 2.9050751 1.1360999
0.37243667 2.9119835 1.1385165
0.395055 2.9117 1.1393499
0.41225252 2.9070749 1.13695
0.40305001 3.0050001 1.1250999
0.36410001 3.1162 1.1302
0.42212999 1.6075667 1.1443666
0.44461334 1.6079999 1.1435333
0.46321332 1.6079668 1.1442333
0.48405001 1.6081001 1.1496
0.38453999 2.0084 1.149
0.41370001 2.0957999 1.1563001
0.42014 2.0984001 1.1535
0.416035 2.1022999 1.1422
0.42897907 2.1107488 1.1511798
0.4354181 2.1290116 1.1490346
0.441185 2.13275 1.1564749
0.43315929 2.1469715 1.1525857
0.44069001 2.1403999 1.1575
0.3786 2.47825 1.152325
0.38153002 2.4790666 1.1581334
0.37158 2.4814999 1.14
0.39339221 2.4841945 1.1489389
0.40496683 2.492857 1.1499393
0.41345879 2.5100086 1.1511147
0.41145921 2.5288482 1.1507679
0.40414 2.5418401 1.1512001
0.374385 2.6385 1.1456499
0.37895334 2.6410999 1.1455667
0.39126062 2.6457875 1.1494315
0.40719572 2.6535094 1.1494095
0.4147543 2.6683002 1.1502216
0.42082 2.6766 1.1573
0.41459391 2.6893563 1.1511478
0.41315502 2.7021501 1.15865
0.36408502 2.9177999 1.14045
0.41113666 2.9061 1.1404667
0.37318 2.9212999 1.1404001
0.409035 1.60835 1.16345
0.42886999 1.6082 1.1695
0.45106596 1.6083 1.1715
0.47121 1.60885 1.168
0.41608748 2.0973501 1.1698999
0.42477399 2.09884 1.1665601
0.43314701 2.10887 1.16752
0.44920307 2.11324 1.17041
0.46256 2.1080499 1.1772001
0.43878168 2.1289835 1.1679279
0.44110638 2.1302783 1.1732428
0.4343735 2.1481538 1.1686537
0.44121 2.1421001 1.1698
0.37537876 2.4531374 1.1725875
0.37672624 2.4696751 1.1677876
0.38278285 2.4757073 1.1676428
0.39284062 2.4836998 1.1687062
0.40737554 2.4928622 1.1704139
0.41419199 2.5099401 1.1706402
0.41162789 2.5290248 1.1710541
0.40350997 2.541625 1.1652249
0.38790751 2.6388502 1.1751499
0.40858999 2.6366 1.1619
0.38957873 2.6443999 1.170025
0.40908268 2.6513903 1.1716233
0.42161 2.6573 1.1789
0.41570404 2.6695213 1.1690865
0.42161 2.6719 1.1794
0.41421151 2.6899519 1.1701446
0.40783396 2.7035604 1.171
0.42543781 2.7143223 1.1704888
0.42865002 2.7224998 1.1775501
0.40983 1.6049 1.1834
0.42877501 1.6033001 1.1810501
0.4531475 1.60405 1.1877999
0.41511628 2.0966372 1.1890625
0.42301804 2.0982797 1.1876199
0.41903999 2.1006999 1.1969
0.43092668 2.1062 1.1882417
0.44407859 2.115314 1.1935999
0.46340644 2.1058707 1.190153
0.43830052 2.1309001 1.188565
0.44133279 2.1287501 1.1907555
0.43421602 2.1493785 1.1894424
0.440945 2.1424999 1.1970501
0.41927001 2.1610999 1.1832
0.423805 2.1607499 1.1875999
0.37374902 2.4507902 1.1900101
0.37545002 2.4760249 1.1933999
0.38396332 2.4779222 1.1906778
0.39367887 2.4831555 1.1889611
0.40790462 2.493011 1.1891428
0.41485801 2.5095832 1.1910932
0.41160598 2.528676 1.189644
0.40437001 2.5410252 1.191025
0.3914811 2.6378446 1.1916778
0.40250999 2.6382999 1.196
0.39791399 2.64396 1.1933801
0.40772367 2.6509657 1.1891552
0.41654912 2.6684957 1.1897087
0.42123604 2.6737399 1.1905199
0.4149996 2.6897204 1.18994
0.41071334 2.7031333 1.1911668
0.42692381 2.717375 1.19155
0.42487001 2.72135 1.1873
0.39730999 1.6052999 1.2194
0.44411334 1.6066333 1.2128667
0.46345001 1.6066999 1.2086999
0.48624 1.6073999 1.2171
0.39598334 1.978 1.2125999
0.41093382 1.9840692 1.2130077
0.413735 2.0960643 1.2104357
0.4237617 2.0990169 1.2088833
0.37505716 2.1164572 1.2165715
0.38249499 2.1069999 1.21825
0.43221298 2.1078751 1.2130899
0.45346436 2.1101 1.2098563
0.46329123 2.1066375 1.2047625
0.37097132 2.1299729 1.2151181
0.43845126 2.1305623 1.2078813
0.44169942 2.1271412 1.209841
0.37617335 2.146378 1.2159779
0.38426855 2.1553712 1.2177428
0.43400377 2.1489034 1.2105999
0.44086999 2.1449499 1.2028999
0.42131671 2.1614001 1.2076334
0.37729999 2.4563141 1.2046144
0.37806001 2.4719627 1.209375
0.38337919 2.4758084 1.2086666
0.34760502 2.4920998 1.21945
0.39427996 2.4833894 1.2115895
0.4068926 2.4932261 1.2103258
0.34267777 2.5083668 1.2156557
0.41318476 2.5100527 1.210364
0.33982 2.5206001 1.2178
0.34423739 2.5300107 1.2147789
0.41113529 2.5297856 1.2108037
0.354375 2.543575 1.2169125
0.364245 2.5495498 1.2191751
0.40321499 2.543 1.205675
0.37801999 2.6395001 1.2149
0.38983899 2.6380601 1.2100501
0.39601085 2.6429667 1.2114416
0.40868035 2.653028 1.20825
0.42063999 2.6596 1.2083
0.34195375 2.6707873 1.217875
0.4164058 2.668925 1.2110749
0.42147502 2.6691999 1.20265
0.34450078 2.6895752 1.2166167
0.41433701 2.6899998 1.2086166
0.35271332 2.7056501 1.2164917
0.36968499 2.7128 1.2193
0.41380772 2.7049844 1.2078153
0.42267498 2.7144833 1.2047334
0.39309001 1.6046 1.22225
0.41991001 1.6054 1.2333
0.4301725 1.605675 1.22685
0.39480001 1.9773 1.2228
0.40655169 1.9790001 1.2335833
0.41338837 1.9846834 1.2297833
0.39967999 2.0943999 1.2225
0.40899 2.09565 1.2223001
0.42584333 2.0990999 1.2215999
0.37408274 2.111809 1.2230182
0.38435501 2.1041 1.22065
0.43476999 2.1096923 1.2227693
0.36897498 2.1296799 1.2234901
0.43970001 2.1370001 1.2237
0.44154999 2.1296582 1.2218667
0.37422544 2.1489 1.2235364
0.38518667 2.1578667 1.2236333
0.43584552 2.147989 1.2249556
0.38788667 2.1605332 1.2244333
0.40145999 2.16365 1.2227499
0.37693 2.4777 1.2226
0.38277 2.4793501 1.22225
0.34682333 2.4928834 1.2237834
0.39491498 2.4835749 1.22245
0.4077011 2.4924779 1.2231112
0.34181753 2.50755 1.2239749
0.41480997 2.5090499 1.2234832
0.34529832 2.5326335 1.2231165
0.4103443 2.5328002 1.2237285
0.35400888 2.5460443 1.2240444
0.36952665 2.5542002 1.2230834
0.38166001 2.6398001 1.2259001
0.34597 2.6551332 1.2259333
0.39421999 2.6440752 1.2243249
0.40704614 2.6514921 1.2236384
0.33883572 2.6727428 1.2266572
0.341824 2.6649199 1.2237799
0.41559157 2.668777 1.2244616
0.338765 2.6845751 1.2256749
0.34317636 2.6923909 1.223891
0.4147408 2.6895916 1.2236334
0.35160708 2.7070591 1.2257177
0.36757874 2.7145374 1.22375
0.41041499 2.7019 1.22465
0.46991 1.6071 1.2448
0.40513167 1.97825 1.2517833
0.41360775 1.9837846 1.2508848
0.40879664 1.9786334 1.2651666
0.41540748 1.983725 1.2640376
0.39766002 1.5961 1.3299
0.43782499 1.59945 1.33385
0.41711751 1.5970999 1.392725
0.38375998 1.5942 1.4075
0.39464331 1.5951667 1.4283999
0.42808333 1.5975 1.4300333
0.44268 1.5991 1.449
0.40573215 0.92954004 1.4727499
0.37399501 1.5932 1.4689
0.44801 1.5991 1.4680001
0.4112421 0.93199712 1.4910142
0.39194 1.5946 1.4997
0.41585201 0.93311733 1.5079534
0.42206001 0.93313003 1.5141
0.40885401 0.93154794 1.5267999
0.42396998 0.9351384 1.5250168
0.47544 1.2242 1.5371
0.47874001 1.24255 1.5380499
0.48070669 1.2516667 1.5385333
0.47964999 1.2854 1.5396
0.37190333 1.5929667 1.5351334
0.37510502 1.59305 1.543
0.44171333 0.95230669 1.5941334
0.35903999 1.5915999 1.5812
0.39175001 1.5936 1.5845001
0.44754252 0.95634747 1.6134
0.45003 0.95736998 1.6208
0.35508001 1.591 1.6378
0.45157 1.5982 1.6205
0.35800001 1.5913 1.6418
0.39717001 1.5936999 1.65255
0.40184 1.5942 1.6545
0.40233001 1.594 1.6601
0.44376999 1.5974 1.6632
0.35058498 1.59015 1.6935999
0.38549501 1.5929999 1.68565
0.41949999 1.5955 1.68265
0.36803001 1.5918 1.7117
0.42728001 1.596 1.7395
0.34548998 1.5892999 1.7438999
0.43504667 1.5963999 1.7536668
0.34889001 1.5886 1.7628
0.40321001 1.5927 1.7783
0.38264999 1.5915 1.7958
0.40332001 1.5926499 1.7801499
0.37724999 1.5908999 1.8375
0.34804001 1.5892 1.8431
0.387685 1.5912499 1.8525
0.35916001 1.5889 1.86885
0.36008 1.5887001 1.8726
0.41470668 1.5934 1.8781333
0.42910001 1.5944 1.8927
0.40132999 1.5919 1.9122
0.37503499 1.59 1.9254501
0.41543999 1.5930001 1.9239
0.29539502 2.2126498 1.9391
0.29617751 2.2265251 1.9395
0.28928 2.4477 1.9398
0.3475 1.5878999 1.94195
0.39276499 1.5906999 1.949
0.29638797 2.2099118 1.9508401
0.30053398 2.21488 1.9462999
0.29838502 2.2306888 1.9503459
0.30082899 2.2263598 1.95082
0.29843035 2.2491033 1.9501297
0.30069777 2.2501445 1.9534891
0.29786634 2.2689579 1.9503103
0.30077362 2.2695181 1.9491364
0.29783779 2.2896314 1.9482563
0.30046999 2.2841501 1.9546499
0.29819 2.3094749 1.9487499
0.30052498 2.3104 1.9528999
0.29796311 2.3309345 1.9505961
0.30062443 2.3290331 1.9515667
0.29834703 2.3501701 1.9513446
0.300825 2.3522751 1.9529999
0.29800376 2.3693957 1.9520501
0.30025002 2.3684666 1.9477333
0.29769894 2.390017 1.9503728
0.30039498 2.39275 1.94765
0.29773602 2.4100566 1.9503267
0.29812315 2.4301999 1.9513999
0.3012 2.4261999 1.9459
0.29728964 2.449985 1.9514
0.30022001 2.4474001 1.9504
0.29682559 2.4706283 1.9526161
0.29785901 2.4882901 1.9524599
0.30046999 2.4949498 1.954
0.29730392 2.5108826 1.9502826
0.30019999 2.5030999 1.95435
0.27531001 2.5349498 1.94015
0.29666567 2.5303304 1.9504958
0.29650348 2.5491309 1.9510154
0.27856001 2.5667 1.941
0.29480913 2.5697668 1.9512998
0.29617131 2.5889697 1.9514524
0.29572776 2.608623 1.9502864
0.29552761 2.6296096 1.9502429
0.30092001 2.6315999 1.9567
0.29547334 2.6504164 1.951696
0.29525417 2.6698668 1.9510041
0.29449317 2.6897316 1.9527315
0.29333809 2.7081618 1.9512191
0.29315001 2.73035 1.9502888
0.29355353 2.7493999 1.9521469
0.29284999 2.7699902 1.9511521
0.29479748 2.7900851 1.9527899
0.29324651 2.8100448 1.95137
0.29419476 2.8304117 1.9510531
0.29416648 2.8498881 1.9518471
0.29363081 2.8699999 1.9527539
0.2940979 2.8882287 1.9507856
0.29378703 2.9103062 1.9523531
0.27996001 2.9303999 1.9457
0.29234526 2.9310372 1.9520894
0.29372254 2.95065 1.9533416
0.29415157 2.9703789 1.9524791
0.29402813 2.9899933 1.95355
0.29353711 3.0102336 1.9533286
0.29424623 3.0310936 1.9536186
0.29117718 3.0501425 1.9526215
0.29221177 3.069088 1.9532881
0.32668 1.5865999 1.9608999
0.378665 1.58965 1.9756
0.38087001 1.5899 1.9772
0.29627579 2.2088423 1.9688841
0.30039856 2.2121856 1.9727714
0.29896095 2.2306502 1.9709228
0.3008225 2.227 1.9674751
0.29828346 2.2495697 1.9709957
0.30165601 2.2521396 1.9743401
0.29851899 2.2692599 1.9708802
0.30031443 2.2710888 1.9670444
0.29864648 2.2901523 1.9698478
0.30087456 2.290518 1.9683362
0.29828522 2.3102567 1.9702761
0.30078 2.3098752 1.96885
0.29861802 2.329248 1.970788
0.30039224 2.3306999 1.9696666
0.29843047 2.3502381 1.9707046
0.30079499 2.3483624 1.9679624
0.29817715 2.3709073 1.9716285
0.30071667 2.3627665 1.9678999
0.29813427 2.3900385 1.9687964
0.30061001 2.388 1.9642
0.2982024 2.4102759 1.9683199
0.30028 2.4130499 1.973
0.29796168 2.4292278 1.9697207
0.29805449 2.4493961 1.9700259
0.30019999 2.4540665 1.9783
0.29756927 2.4705863 1.9717484
0.30024001 2.4612999 1.9629
0.29787967 2.4898541 1.9682727
0.29703033 2.5097096 1.967925
0.30011001 2.5093 1.9605
0.29675141 2.5294359 1.9687927
0.29607481 2.549289 1.9705369
0.29646966 2.569654 1.9689176
0.29583618 2.5907731 1.9693539
0.29596594 2.6102221 1.9667075
0.29642689 2.6296499 1.967804
0.29633534 2.6490331 1.9688432
0.30008 2.6507001 1.9614
0.29532439 2.6708517 1.969604
0.29406556 2.6901448 1.9693947
0.29248133 2.7097027 1.96771
0.29501516 2.7300003 1.9679139
0.30035001 2.7351 1.9682
0.29486611 2.7500653 1.9695154
0.29433697 2.7699401 1.9697367
0.29427999 2.789577 1.9712601
0.29432848 2.8091466 1.9694269
0.29396483 2.830055 1.9688965
0.29507664 2.8508222 1.9691595
0.29459214 2.8695893 1.9701501
0.29394102 2.8899999 1.9713465
0.29377463 2.9105389 1.970627
0.2944133 2.930541 1.9714925
0.29415035 2.9499142 1.9700787
0.29358715 2.9713535 1.9713286
0.29374999 2.9898472 1.9707316
0.2945393 3.0092371 1.9714966
0.29332301 3.0282648 1.9732149
0.29341081 3.0497761 1.9711239
0.29311714 3.0711384 1.9704143
0.38396502 1.59005 1.9805501
0.29541972 2.2094142 1.9898325
0.30050001 2.2175 1.9908249
0.29914874 2.2313623 1.9911063
0.301229 2.2288299 1.98913
0.29883519 2.250113 1.9906912
0.30050713 2.2496572 1.9920714
0.29855338 2.2695374 1.9897666
0.30049801 2.2697001 1.9885399
0.29788962 2.2896037 1.9906749
0.30083001 2.294225 1.982125
0.29846236 2.3110049 1.9894381
0.30085748 2.31005 1.988575
0.29826725 2.3306999 1.9903954
0.30037248 2.3287749 1.9897
0.29809889 2.3485405 1.9896441
0.30079335 2.3554666 1.9945666
0.29787698 2.3684266 1.9904702
0.3003 2.3738 1.9952
0.29734689 2.389452 1.9891174
0.30022001 2.3824999 1.9956
0.29876381 2.4096286 1.9885714
0.30027664 2.4097002 1.9879001
0.29777342 2.4292963 1.988523
0.30035001 2.4398999 1.9816
0.29750282 2.4507642 1.9896158
0.30022001 2.4467001 1.9997
0.29737067 2.4705639 1.9900858
0.30019 2.4716001 1.9946001
0.29690447 2.4899416 1.9891551
0.2974115 2.5104036 1.9892187
0.29729176 2.5273411 1.9861234
0.31288001 2.5222001 1.9909
0.32419571 2.5315144 1.9880857
0.29675004 2.5491376 1.986594
0.31836 2.5579 1.9835
0.32405701 2.5517201 1.98913
0.29642463 2.5699849 1.9884306
0.32421169 2.5713418 1.9888334
0.29647157 2.5911076 1.9888847
0.31050998 2.5903399 1.99106
0.32502273 2.5897999 1.9897091
0.29614812 2.6096623 1.9850813
0.324835 2.6106501 1.9904499
0.29641429 2.6294 1.9829571
0.31971502 2.6307502 1.98585
0.322965 2.6301918 1.9913334
0.29590666 2.6507599 1.9872867
0.31904501 2.64415 1.9863501
0.32458666 2.6448333 1.9897
0.2956326 2.6720262 1.9892476
0.29500952 2.6887264 1.9894632
0.29160699 2.7087929 1.9900364
0.29474053 2.7293737 1.9868581
0.29471955 2.7489774 1.9885228
0.29552045 2.7699749 1.9902707
0.29502422 2.7891841 1.9899107
0.29460216 2.8092911 1.9893565
0.29504666 2.8299627 1.9908252
0.2949748 2.8492041 1.9887171
0.29469162 2.8689377 1.9888625
0.29463312 2.890414 1.9903449
0.29465866 2.9108863 1.9912366
0.29451838 2.9304438 1.9920198
0.29452291 2.9510667 1.9896375
0.29406917 2.9714363 1.989476
0.29493687 2.9902818 1.9901092
0.29373392 3.0098045 1.9903738
0.2933991 3.0309408 1.9912454
0.29306638 3.0510321 1.9898081
0.29289779 3.0701222 1.9888777
0.29049999 3.0804999 1.9931
0.36548001 1.5883 2.0063
0.29412252 2.2079253 2.0122499
0.30059001 2.2140002 2.0098462
0.29888535 2.2310402 2.0118935
0.30089089 2.2305727 2.0087092
0.29853997 2.2496316 2.0121412
0.30080914 2.2514086 2.0105498
0.29872853 2.2711849 2.0096698
0.30129364 2.2697999 2.0152636
0.29860455 2.2903545 2.0076456
0.30060124 2.2888498 2.0127249
0.29843566 2.3117216 2.0093086
0.30073667 2.3093667 2.0122168
0.29897684 2.3291771 2.0088317
0.3007333 2.3316002 2.0114446
0.2983968 2.3490183 2.0103362
0.30061251 2.3517249 2.0158749
0.29812333 2.3693998 2.0103209
0.30030599 2.36672 2.0157399
0.29785869 2.3899398 2.0092366
0.30115667 2.3866665 2.0114667
0.29826537 2.4099464 2.0092146
0.30090001 2.4186001 2.0006001
0.29791042 2.4294999 2.0093753
0.30004668 2.4309332 2.0151331
0.29709247 2.4485157 2.0092626
0.30071998 2.4530334 2.0164335
0.2978493 2.469414 2.0110791
0.30070001 2.4784 2.0028
0.29714522 2.4893899 2.0095446
0.2973873 2.5098729 2.0090384
0.29626501 2.5294228 2.0097456
0.2963585 2.5498631 2.0101333
0.29576042 2.57075 2.010833
0.29590347 2.5894773 2.0113382
0.29585561 2.6105087 2.009074
0.29606345 2.6297262 2.0082304
0.2958346 2.6492999 2.0096462
0.29550868 2.6699607 2.0096784
0.29418251 2.6888077 2.0097666
0.29152873 2.709245 2.0096323
0.29479632 2.7295699 2.0090399
0.29469436 2.7488306 2.0086999
0.29445964 2.7697771 2.0103517
0.29431877 2.7903922 2.0101719
0.29334593 2.8100667 2.0106151
0.29428041 2.828588 2.0104477
0.29475954 2.8501635 2.0081
0.29433182 2.8710771 2.0085864
0.2945219 2.8900571 2.0108235
0.2950196 2.9095294 2.0092959
0.29388636 2.9301317 2.0112181
0.29479465 2.9499857 2.0109107
0.29505214 2.9714127 2.0088654
0.29451779 2.9901137 2.0099726
0.29387832 3.0089221 2.010972
0.29260096 3.0298285 2.0095189
0.29330105 3.0489848 2.00893
0.29324999 3.0699308 2.0077567
0.29067001 3.0806999 2.0009
0.41227001 1.5984 2.0393
0.29566666 2.209811 2.0307593
0.30050334 2.2145002 2.0255666
0.29853502 2.2308373 2.0299213
0.30116996 2.22542 2.02982
0.29846999 2.2490335 2.0311725
0.30072999 2.2505636 2.0288451
0.29836771 2.2684345 2.0305114
0.30047667 2.2727001 2.0288
0.29793581 2.2915645 2.0283098
0.30022001 2.2902498 2.02125
0.29816023 2.3100755 2.0292213
0.30071333 2.3085332 2.0273669
0.29838651 2.329885 2.0310845
0.30065 2.3278501 2.0248168
0.29831547 2.3489091 2.030623
0.30059144 2.3503859 2.0279002
0.29788914 2.3698778 2.0307112
0.29743209 2.3896756 2.0296881
0.29815453 2.4103153 2.0289268
0.30002001 2.4047 2.0262001
0.29760453 2.4299517 2.0305517
0.30072999 2.4335666 2.0250666
0.29736966 2.4500871 2.02949
0.30087 2.4458334 2.0293999
0.29745001 2.4708757 2.0302787
0.29708183 2.4908297 2.0308592
0.300405 2.4917998 2.0290501
0.29696223 2.5100348 2.0291703
0.29656404 2.5307369 2.0288887
0.29652193 2.5508387 2.030261
0.29650515 2.5692239 2.0310106
0.30006 2.5762 2.0220001
0.29566357 2.5885775 2.030787
0.29583907 2.609988 2.0298274
0.29646075 2.6291413 2.0293672
0.29545429 2.6498098 2.0297763
0.29620531 2.670047 2.0295844
0.29496789 2.6890295 2.031275
0.29329649 2.7096558 2.0306559
0.29523185 2.7296963 2.030674
0.29487914 2.7498958 2.0305173
0.29499906 2.7703321 2.0309839
0.29471037 2.7907741 2.032233
0.29520118 2.8095322 2.0306001
0.29483998 2.8311501 2.0316415
0.29511347 2.8508477 2.0295913
0.29439923 2.8712521 2.0289841
0.29431269 2.8902576 2.0294268
0.29490229 2.909004 2.0298922
0.29457259 2.9294612 2.0296521
0.29454714 2.9492824 2.0317035
0.29432651 2.9701693 2.028096
0.29422042 2.9897959 2.0288417
0.29430047 3.009455 2.028918
0.29332182 3.0303428 2.0295
0.29435381 3.049505 2.0307286
0.29391876 3.0689499 2.0307376
0.37012669 1.5976 2.0531001
0.39084503 1.5976 2.0497167
0.40088001 1.5986 2.0546
0.29623678 2.2107878 2.0498526
0.30046001 2.2079999 2.0453
0.29806364 2.229116 2.0485523
0.30061001 2.2311001 2.05005
0.29828501 2.2495923 2.0518537
0.30051833 2.2506163 2.0467167
0.29843941 2.2701843 2.0503876
0.30089667 2.2705667 2.0519667
0.29801536 2.2899001 2.0476644
0.30113333 2.2858334 2.0557668
0.29779825 2.3097277 2.0507519
0.29782173 2.3313415 2.0489688
0.30052498 2.32565 2.0522499
0.29820383 2.3515615 2.0509501
0.30015999 2.3485 2.046
0.29768068 2.3710039 2.0503139
0.29767245 2.3902688 2.0507481
0.300255 2.38975 2.0555
0.29756504 2.410553 2.0484471
0.29705933 2.4310553 2.0500548
0.30107999 2.434 2.0508499
0.29727215 2.4497108 2.0497072
0.30063 2.4505665 2.0541501
0.29700652 2.4703653 2.0495696
0.29678628 2.4898541 2.0510042
0.29603001 2.5101657 2.0493827
0.29657876 2.5297418 2.0496795
0.29617792 2.5488243 2.0494273
0.29522347 2.570426 2.0501089
0.29564872 2.5896194 2.0503774
0.29590681 2.6092644 2.0516355
0.29515561 2.6297431 2.0488501
0.29559112 2.6499574 2.0484228
0.29581395 2.6701248 2.0508821
0.29459551 2.6882401 2.0493598
0.29158527 2.7102773 2.050108
0.29504666 2.7304077 2.0507925
0.3001 2.7244 2.0429001
0.29441994 2.7507212 2.0486658
0.2942211 2.7709851 2.0502465
0.29500002 2.7912409 2.0521817
0.29512042 2.8114302 2.050477
0.29443389 2.8305869 2.0518436
0.29413253 2.8501143 2.0494142
0.29410464 2.8697605 2.0488038
0.29409412 2.8900206 2.0494943
0.29450801 2.9107735 2.0493565
0.29420319 2.9294772 2.0494711
0.29422522 2.9494443 2.0511334
0.29448342 2.9689789 2.047693
0.29363617 2.9904227 2.0492032
0.29417142 3.0096714 2.0499427
0.293915 3.0304873 2.0492668
0.29417506 3.0500624 2.050154
0.29399076 3.0699461 2.0502644
0.29302001 3.0808334 2.0468998
0.33834499 1.59785 2.076
0.36414 1.59805 2.07605
0.41076002 1.5983334 2.0719333
0.29434669 2.2081416 2.0701332
0.30028999 2.21665 2.07375
0.29852897 2.2296553 2.0691206
0.30072749 2.2294502 2.0726252
0.29806259 2.2489777 2.0706296
0.30057749 2.2490501 2.0743251
0.29821667 2.2708192 2.0717955
0.30061299 2.2690601 2.0710499
0.29779691 2.2906036 2.0703771
0.30062333 2.2867334 2.0666666
0.29826877 2.3093638 2.0705161
0.30026144 2.3084714 2.0656142
0.29878733 2.3299272 2.070292
0.30048624 2.3300376 2.0687375
0.29810777 2.3501806 2.0700517
0.30070502 2.3499999 2.0681
0.29800123 2.370028 2.0704749
0.30066001 2.3697 2.0669
0.29764149 2.3896887 2.0694704
0.30129999 2.385 2.0792499
0.29767001 2.4095871 2.070097
0.29756218 2.4298036 2.0692322
0.30076 2.4359 2.073
0.29732701 2.4498832 2.0703866
0.29648694 2.4706583 2.069253
0.29646 2.489882 2.0709357
0.29596031 2.5098 2.0688531
0.30043 2.5181 2.0799
0.29660162 2.5306351 2.0689259
0.2959407 2.5499139 2.0704899
0.29565999 2.5699296 2.0699546
0.29627892 2.5895739 2.0706666
0.2957918 2.609304 2.070775
0.29565305 2.6305609 2.0682349
0.2956323 2.6492732 2.0682156
0.29514405 2.6690111 2.0697443
0.29369 2.6885149 2.0703197
0.29162166 2.7100763 2.0703733
0.29492807 2.7292154 2.0707154
0.29490334 2.7502668 2.0697749
0.29364458 2.7719917 2.0694499
0.29492566 2.7902365 2.0706701
0.29462668 2.8100224 2.0701997
0.29379258 2.8290036 2.0712073
0.29420877 2.8488789 2.0687165
0.29431254 2.8687901 2.0685518
0.29474702 2.8903334 2.0691998
0.29460639 2.910259 2.0701411
0.29405439 2.9297199 2.069612
0.29435346 2.9495769 2.0711844
0.294144 2.9701002 2.0688901
0.29393607 2.9901605 2.0707967
0.29427093 3.0101714 2.0696146
0.29354456 3.030179 2.0694623
0.2931959 3.0503368 2.0702777
0.29345867 3.0700998 2.0693004
0.29233333 3.0822001 2.0654666
0.31509668 1.5974334 2.0836999
0.35347 1.5989 2.0869999
0.36717999 1.599 2.0883501
0.37057 1.6001 2.0974998
0.39227 1.6001 2.095
0.36195499 1.6274 2.0992
0.38283753 1.63335 2.099
0.36644 1.6469001 2.098
0.38508502 1.648325 2.099
0.29729035 2.2094963 2.0900962
0.30066666 2.2165999 2.0883
0.29813918 2.2296278 2.0898521
0.30055717 2.2318571 2.0907285
0.29797679 2.2498398 2.0904958
0.3003 2.2574 2.0811
0.29791039 2.2694001 2.0897319
0.30054748 2.2665501 2.0873749
0.29843584 2.2896099 2.0881968
0.30050001 2.2926333 2.0976
0.29767361 2.3105071 2.0894859
0.30065501 2.30285 2.09655
0.29814348 2.3292348 2.0908189
0.30032 2.334475 2.0876999
0.29834935 2.3515067 2.0907369
0.30072001 2.34725 2.0820999
0.29788798 2.3704484 2.09114
0.30022249 2.3680751 2.0922749
0.29762343 2.3900588 2.0894551
0.30046001 2.3817999 2.0871999
0.29760221 2.4097812 2.0888441
0.30074 2.4149001 2.0843999
0.29695129 2.4294829 2.0901301
0.29687616 2.4489419 2.0902417
0.29659703 2.4689968 2.0911701
0.29669002 2.489737 2.0917368
0.29593942 2.5097854 2.0892262
0.29583347 2.5303645 2.0906441
0.29578748 2.5507059 2.089875
0.29627261 2.569922 2.090826
0.29570535 2.5903499 2.0906072
0.29618502 2.6106722 2.090575
0.29614347 2.6297128 2.0880826
0.29582706 2.6501517 2.0896001
0.29637042 2.6701682 2.0893281
0.29571328 2.6863146 2.0912859
0.29186592 2.7095628 2.0900154
0.29446542 2.7308118 2.0892692
0.29530379 2.7494071 2.089545
0.29521421 2.7710085 2.0891874
0.29481697 2.7899871 2.0911999
0.29407999 2.810148 2.0915
0.29505691 2.8294346 2.0913274
0.29487965 2.8494537 2.0904863
0.29419038 2.8703041 2.0898583
0.29391438 2.890636 2.089828
0.29453668 2.9104371 2.0905814
0.29420501 2.9297171 2.0905621
0.29407543 2.9491961 2.0895963
0.29394078 2.9711123 2.0915959
0.29348129 2.9891045 2.0889523
0.2934944 3.0093637 2.0885639
0.29499602 3.0296755 2.0900559
0.29363558 3.0506041 2.0894964
0.29372913 3.0700481 2.0908391
0.29407802 3.0822399 2.08708
0.33564502 1.6145 2.1031001
0.35365334 1.6028666 2.1022999
0.37465 1.605 2.1027
0.40298501 1.60095 2.1015501
0.38595781 1.6307555 2.102078
0.36865002 1.6547999 2.10955
0.38509834 1.65025 2.1026499
0.35350001 1.6633 2.1129999
0.36392498 1.6676 2.1108999
0.40529001 1.6763 2.1064999
0.31551999 1.684 2.1013501
0.33133999 1.6907333 2.1025333
0.35027003 1.6937333 2.1041002
0.37194461 1.6883305 2.1090231
0.38122749 1.693725 2.104775
0.4050425 1.6858749 2.106925
0.31995001 1.7122999 2.1013
0.32766998 1.713675 2.1019502
0.34923145 1.7057716 2.1047428
0.36993 1.7013 2.1069
0.38448 1.7166601 2.1055198
0.31349 1.7376 2.1015
0.32384002 1.7243999 2.1084669
0.34359753 1.7235 2.106575
0.36592999 1.7304626 2.1064
0.38276669 1.7361832 2.1076834
0.30858669 1.7405334 2.1019001
0.35911 1.75105 2.1107502
0.36862001 1.75335 2.1068501
0.38551396 1.7487867 2.1087401
0.31402999 1.7681 2.1005001
0.35535002 1.7722001 2.1083
0.37465715 1.7679428 2.1095002
0.389018 1.76544 2.10742
0.30728501 1.7934 2.10255
0.34899253 1.789775 2.1059752
0.36876443 1.7910224 2.1065555
0.38159335 1.7900333 2.1093333
0.30859998 1.8141333 2.1043334
0.34737 1.8087667 2.1052666
0.3645525 1.8087 2.1085501
0.39115626 1.8105375 2.1095128
0.31113499 1.8248 2.106375
0.33048666 1.8364334 2.1054335
0.34465 1.83805 2.1047499
0.36531502 1.82855 2.1071
0.39177501 1.8292999 2.1094499
0.32655799 1.84996 2.1071801
0.34854004 1.84725 2.1078832
0.36747 1.8579 2.1085
0.29899502 1.8638999 2.1024499
0.30195001 1.8712333 2.1048334
0.32750499 1.8707751 2.1072249
0.34882331 1.8683666 2.1075335
0.36725247 1.870675 2.110075
0.38677165 1.8679916 2.1142998
0.30855334 1.8941666 2.1023333
0.32906398 1.8908199 2.10636
0.34575 1.89045 2.1063499
0.3752757 1.8892572 2.1114428
0.38865268 1.8916 2.1123266
0.32541499 1.9112625 2.1066999
0.34391001 1.91546 2.10706
0.37277099 1.91204 2.1102998
0.38837636 1.9106637 2.1160543
0.33140498 1.9263999 2.1073
0.34810999 1.93295 2.1097002
0.37232998 1.9341334 2.1094334
0.38651836 1.9292001 2.1113167
0.30855 1.9586 2.1071665
0.33225751 1.948525 2.10885
0.348764 1.95368 2.1109202
0.36434999 1.9419 2.1082001
0.38850331 1.9445333 2.1091335
0.3116422 1.967311 2.1063669
0.32704002 1.96315 2.1083999
0.35378 1.967175 2.1082249
0.36967802 1.9682602 2.1087601
0.304995 1.9807 2.1103001
0.33655715 1.9895999 2.1093428
0.35091248 1.9916 2.112525
0.36819088 1.9912544 2.1122181
0.38749501 1.990675 2.1157751
0.29465249 2.01405 2.10625
0.30177999 2.0199001 2.1071999
0.33522335 2.0080001 2.1096001
0.34756002 2.0142 2.1093667
0.3675186 2.0086572 2.1147287
0.38657999 2.0147166 2.1112001
0.29658332 2.0317333 2.1071665
0.32647833 2.0282667 2.1092832
0.35066599 2.0370002 2.11058
0.37101331 2.0326664 2.1117332
0.297005 2.0495 2.1069999
0.31016669 2.0474665 2.1077669
0.33103141 2.0460715 2.1089001
0.35148001 2.059 2.1106999
0.372338 2.0451798 2.1126599
0.38040003 2.0439336 2.1172998
0.31451002 2.0655999 2.1082001
0.33031499 2.0625 2.109
0.35330999 2.062 2.1105001
0.29636335 2.0848665 2.1103668
0.32268667 2.0867665 2.1099665
0.34005001 2.0892 2.1099999
0.36923251 2.0934 2.1117749
0.29124501 2.1135666 2.1075165
0.308916 2.11408 2.10886
0.32165998 2.1160002 2.1105499
0.35060334 2.1057332 2.1144333
0.36250752 2.1130252 2.1103749
0.29473999 2.1201 2.1077001
0.31402001 2.1205001 2.1082001
0.37306428 2.1485286 2.1102002
0.30987999 2.1686001 2.1105001
0.32319 2.1794 2.1103001
0.36553499 2.1679251 2.1075501
0.28665 2.1982501 2.1093502
0.32243502 2.1834998 2.1115999
0.2951749 2.2093484 2.1092787
0.30168998 2.21245 2.10955
0.32185 2.2025001 2.1173999
0.29831207 2.2307036 2.1110346
0.30144501 2.22455 2.1109748
0.29804218 2.2504559 2.1102076
0.301094 2.24544 2.1163399
0.29783103 2.2687755 2.109
0.29777235 2.2902896 2.1096966
0.30087 2.2925 2.1041999
0.29817376 2.309592 2.1077831
0.30063334 2.3126333 2.1137168
0.29807824 2.3313956 2.1096783
0.30080333 2.3237 2.1120002
0.29772294 2.3506997 2.1098998
0.30008501 2.3474002 2.1082501
0.29720351 2.3683038 2.1111231
0.30069 2.3784001 2.1192
0.29762751 2.3903718 2.110497
0.29706848 2.410079 2.1098695
0.29697677 2.4295032 2.1102822
0.29677072 2.4507861 2.110038
0.29702109 2.4703214 2.1109929
0.29670712 2.4896502 2.110532
0.29638499 2.509707 2.1103499
0.29656097 2.5300498 2.1102934
0.29634243 2.5495141 2.1111174
0.29612887 2.5698164 2.1100831
0.2969161 2.5900435 2.1095867
0.29575828 2.6103649 2.1106677
0.29551065 2.6299367 2.10988
0.29518932 2.6508727 2.1094346
0.29652998 2.6696692 2.1093078
0.29420835 2.6887999 2.1105123
0.29151097 2.7087846 2.110482
0.29485247 2.7290313 2.1102779
0.29459289 2.7502396 2.1087821
0.29432416 2.769129 2.1093252
0.29432788 2.7898612 2.1103859
0.29498434 2.8100131 2.1096997
0.29435468 2.8296528 2.1115284
0.29453149 2.8494101 2.1103549
0.29476705 2.8698072 2.1095145
0.29425827 2.890687 2.1087089
0.29468295 2.9098814 2.1099741
0.29446948 2.9306366 2.1114368
0.29371297 2.949008 2.1116917
0.29350463 2.9709418 2.1102417
0.29441682 2.9909759 2.1083639
0.29392961 3.0088923 2.1099319
0.29328516 3.0294549 2.1101758
0.29458335 3.04965 2.1098793
0.294092 3.0693598 2.110512
0.29291749 3.0830414 2.1117918
0.35422999 1.71 2.1222999
0.36056501 1.71755 2.1212001
0.35365498 1.72175 2.1227999
0.36878502 1.74775 2.12045
0.34472501 1.85445 2.12115
0.37571749 1.9526501 2.121875
0.37887999 1.9621 2.1215999
0.38093999 1.9635 2.1210999
0.33756 1.9823999 2.1228499
0.37458 1.9842 2.1231999
0.29827669 2.2165668 2.1238334
0.30162999 2.2197001 2.1280999
0.29725721 2.230886 2.1305037
0.30013999 2.22 2.1303999
0.29843608 2.2491176 2.1311829
0.30110401 2.25102 2.12796
0.29809716 2.270129 2.1290751
0.30035001 2.2602999 2.1235001
0.29827395 2.2896199 2.129848
0.30022666 2.2885334 2.1271667
0.29826799 2.3098102 2.1294899
0.30002001 2.3045001 2.1292
0.29810417 2.3298206 2.1298618
0.30031502 2.32845 2.1359501
0.29762712 2.3504217 2.1317821
0.300145 2.3543501 2.13485
0.29751846 2.3695848 2.1305578
0.30042499 2.3750501 2.1314502
0.29788274 2.3891654 2.1301346
0.29692253 2.4102609 2.1303785
0.300165 2.4101 2.1245
0.29686466 2.4297538 2.1299574
0.30159 2.4219 2.1287
0.29686064 2.4506354 2.1309774
0.29694113 2.4702039 2.1312888
0.29683596 2.4893656 2.1304188
0.29698178 2.5100322 2.1291893
0.30111 2.5151999 2.1319001
0.29630485 2.5309851 2.1300519
0.29632479 2.5494556 2.1306243
0.29621315 2.5706549 2.1298656
0.29600003 2.5901585 2.130631
0.29583347 2.6095657 2.1310654
0.29635423 2.6292756 2.1289318
0.29589251 2.6502607 2.1297038
0.29554933 2.6704323 2.1295788
0.29552865 2.6874635 2.1297636
0.29339036 2.7097197 2.1306634
0.29515731 2.7300115 2.1298311
0.29500219 2.7495251 2.1292999
0.29474479 2.7696087 2.1296263
0.29493323 2.7894318 2.1302142
0.29495269 2.8096886 2.1299579
0.29501846 2.830204 2.1313193
0.29523656 2.8510118 2.1308191
0.29494536 2.8694727 2.1294036
0.29439136 2.8898931 2.129838
0.29484108 2.909096 2.1299629
0.29473731 2.9291499 2.1305957
0.29420575 2.9498923 2.1313844
0.2938596 2.9694321 2.1293399
0.29398134 2.989341 2.1294
0.29394209 3.0088084 2.1305916
0.29341036 3.0290999 2.129492
0.29395348 3.0502546 2.1306949
0.29361627 3.0696516 2.1307034
0.29288501 3.0841374 2.133225
0.29806501 2.2348335 2.145817
0.30290666 2.2332001 2.1558332
0.29799774 2.2483146 2.150326
0.300735 2.2507501 2.14955
0.29822668 2.2689483 2.148809
0.300295 2.2687001 2.1441998
0.29767001 2.2900136 2.1498449
0.29730767 2.3102298 2.1499066
0.29682171 2.3298519 2.1501586
0.29803845 2.3499386 2.151073
0.30035999 2.3492 2.1568999
0.29740644 2.3685215 2.1494355
0.29707822 2.3901896 2.1494536
0.29743198 2.4101167 2.1495767
0.29650965 2.4297321 2.1505108
0.29722843 2.4503062 2.1509311
0.29706156 2.4711382 2.151304
0.296671 2.4902964 2.1488326
0.29658365 2.5107865 2.1487565
0.29626623 2.5299244 2.1495864
0.29523188 2.550148 2.1505632
0.29624367 2.5695002 2.1500268
0.29636431 2.5901217 2.150418
0.29609087 2.6102374 2.1486001
0.29590467 2.6298435 2.1490769
0.29611775 2.6497705 2.1497076
0.29598933 2.6701779 2.1499226
0.29405501 2.688818 2.1502774
0.29159325 2.7084031 2.1510324
0.29470643 2.7289715 2.1489964
0.29469639 2.7503316 2.1497321
0.29490286 2.7702141 2.1499214
0.29526523 2.7903371 2.1503592
0.29514998 2.8101692 2.1501806
0.2945725 2.8296585 2.1497915
0.29562616 2.8495002 2.150233
0.29448614 2.8700538 2.1502805
0.29433206 2.8903625 2.1501665
0.29519039 2.909996 2.1499958
0.29527721 2.9290836 2.1502922
0.29550409 2.9484911 2.1508226
0.29459289 2.9692571 2.1494999
0.29387799 2.989588 2.1487763
0.294305 3.0091732 2.1510773
0.29460216 3.029022 2.1507173
0.29362279 3.0497599 2.1501958
0.29391041 3.0692956 2.1508253
0.29313201 3.0850801 2.1485503
0.39360666 1.5995666 2.1725333
0.387539 1.6092699 2.17415
0.40184501 1.6122667 2.1649499
0.37657666 1.6375999 2.1785333
0.38926089 1.632991 2.1702363
0.37954 1.6417 2.178
0.38856119 1.6521626 2.1708813
0.3775 1.6705201 2.177
0.39150432 1.6693715 2.1678784
0.37854001 1.6890501 2.17875
0.38797814 1.68925 2.1706126
0.37853998 1.7060001 2.17735
0.39034414 1.7089061 2.1691117
0.37781999 1.7309999 2.1773
0.39289939 1.7319942 2.1679502
0.37875003 1.74505 2.1786001
0.38869312 1.7524126 2.1710439
0.37992999 1.7794 2.1784
0.3892312 1.7716589 2.1710882
0.37943 1.7964 2.1791
0.38901833 1.7902251 2.1722
0.377785 1.80575 2.1796999
0.39053461 1.8114768 2.1701307
0.39091635 1.8291999 2.1704729
0.38761571 1.8882285 2.1738286
0.37805498 1.9124 2.1791999
0.37865001 1.9209 2.1793001
0.38422835 1.9295834 2.1760917
0.38454819 1.9489818 2.1764817
0.37773752 2.0167 2.1786752
0.37633002 2.0248001 2.1792667
0.29897249 2.2367251 2.1693501
0.30186498 2.2344999 2.1659999
0.29784346 2.2486124 2.1692936
0.29788807 2.2693865 2.1697528
0.30041 2.2704 2.1603
0.29798964 2.2903585 2.1696413
0.30034 2.2874 2.1609001
0.2980974 2.3096287 2.169858
0.30043 2.3146999 2.1659
0.29733363 2.3303134 2.17047
0.29779047 2.3505132 2.1699259
0.29781535 2.3698866 2.1684129
0.30052 2.3631001 2.1633999
0.29699907 2.3899152 2.1699121
0.29715461 2.4098349 2.1686885
0.30048999 2.4173999 2.1652
0.29645395 2.4301541 2.1700311
0.29649407 2.4505692 2.1707718
0.29686809 2.469908 2.1701
0.30037999 2.4658999 2.1791999
0.29661465 2.4900498 2.1688502
0.29563305 2.5090377 2.1698725
0.29575944 2.530427 2.1692607
0.29604554 2.5489817 2.1706777
0.29592305 2.5692437 2.170161
0.29651603 2.5889559 2.1709318
0.29634601 2.6100931 2.169657
0.29536846 2.630441 2.1698999
0.29581481 2.6498923 2.1689723
0.29548261 2.6696002 2.1705003
0.29520348 2.6864564 2.170387
0.29156837 2.7090902 2.1699481
0.29489237 2.7308321 2.1687238
0.29491606 2.7509263 2.1696739
0.29552355 2.7701213 2.1704001
0.29511335 2.7900705 2.1692083
0.29421967 2.8092 2.1713929
0.29422429 2.8294179 2.1695926
0.29488304 2.8494434 2.1692348
0.29500037 2.8698041 2.1688654
0.29410189 2.8902307 2.1702962
0.29444206 2.90926 2.1709361
0.29497752 2.929533 2.1708958
0.29454595 2.949033 2.1695666
0.2944074 2.9704041 2.1689954
0.29388958 2.9905806 2.1694078
0.29389623 3.0095835 2.1710708
0.29457235 3.031106 2.1675589
0.29310316 3.0488043 2.1704681
0.29343995 3.0700002 2.1693857
0.2940093 3.0856135 2.17046
0.35569501 1.59905 2.19665
0.39292336 1.5982666 2.1865332
0.35634372 1.60815 2.1947374
0.3701857 1.6116858 2.1853287
0.35486665 1.6308333 2.1931667
0.36602271 1.6288273 2.1861999
0.35344335 1.6493 2.1941335
0.36644003 1.6512666 2.1859665
0.35660127 1.670125 2.1929126
0.36659223 1.669989 2.1854556
0.35311598 1.69296 2.1967201
0.36600569 1.6912072 2.1862643
0.35246497 1.712 2.1960499
0.36843252 1.7109623 2.1851189
0.35661 1.7315857 2.1946857
0.36609364 1.7294273 2.1865454
0.35348997 1.75054 2.1960199
0.37234557 1.7490444 2.1839111
0.35375997 1.7671667 2.1968334
0.36880541 1.7695153 2.1861768
0.35329664 1.7910222 2.1965227
0.36722445 1.7915334 2.1874666
0.35306752 1.8134 2.1981499
0.37005734 1.8106209 2.1860211
0.35673666 1.8282334 2.1950667
0.37245056 1.8302883 2.1847
0.35600752 1.84785 2.1965749
0.37205997 1.8489832 2.1845667
0.35713831 1.8681 2.1955833
0.36789367 1.8688091 2.1875093
0.35826376 1.8902376 2.1958499
0.36915889 1.8896177 2.1874118
0.35628247 1.9100124 2.1967623
0.36719501 1.9087 2.1891751
0.35531855 1.9302857 2.1976714
0.36951703 1.9312198 2.1868801
0.35464001 1.9513334 2.1982667
0.37153766 1.951341 2.186506
0.35295287 1.9695857 2.198643
0.37207076 1.9699616 2.1869769
0.38181001 1.9732751 2.1803
0.35632664 1.9893112 2.1972666
0.36658001 1.9913 2.1899335
0.35763001 2.0138502 2.1961668
0.37110671 2.0073998 2.1873167
0.38084 2.0127501 2.1817999
0.35545889 2.0295112 2.1974335
0.3722043 2.0291429 2.1860001
0.35596666 2.0493333 2.1970668
0.37232876 2.0533123 2.1869376
0.35543665 2.0669668 2.1970334
0.369115 2.0707099 2.1891198
0.35025501 2.089 2.1998
0.36791089 2.0916545 2.1904092
0.35663334 2.1114666 2.1979165
0.37189144 2.1112714 2.1871858
0.35721499 2.1210499 2.1960001
0.36930001 2.1334221 2.1911888
0.35760999 2.1468501 2.1977999
0.36932799 2.15167 2.1897302
0.35959002 2.1705334 2.1960666
0.29867581 2.232208 2.1908917
0.30136427 2.2289143 2.1868856
0.29813129 2.2498195 2.1892292
0.30067 2.2532001 2.1926
0.29781708 2.2690668 2.1891832
0.30056858 2.2722285 2.1891
0.29714355 2.2897072 2.1898463
0.30037999 2.2874 2.1938
0.29733106 2.309864 2.1911197
0.29796147 2.3304112 2.190711
0.29752296 2.3496962 2.1890182
0.30069 2.3529 2.1835001
0.29733527 2.3689375 2.1904471
0.30084997 2.3754499 2.1862998
0.29725379 2.3909791 2.18998
0.29676723 2.41044 2.1890161
0.30044001 2.4021001 2.1975
0.29655874 2.4293685 2.1908875
0.29741693 2.4486578 2.189873
0.30108666 2.4540002 2.1908667
0.29651999 2.4707751 2.1894572
0.2968955 2.4897637 2.1887724
0.29592547 2.5095837 2.1907582
0.29688379 2.5293448 2.1897829
0.29620999 2.5502069 2.1914692
0.29578254 2.5698535 2.189575
0.29571071 2.5899427 2.1891823
0.30030999 2.5989001 2.1958001
0.29628721 2.6110678 2.1900921
0.29584917 2.6306083 2.1894124
0.29582277 2.6500802 2.1904843
0.29570222 2.6695077 2.1904631
0.29492199 2.688005 2.1905453
0.2923792 2.7095902 2.1891639
0.29513705 2.7302668 2.1896405
0.29551682 2.750072 2.1893401
0.29450515 2.7694483 2.1907594
0.2949014 2.7895606 2.1901569
0.29531321 2.8109324 2.1900878
0.29502913 2.8298624 2.1891792
0.2951344 2.8504148 2.1892445
0.29543915 2.8693001 2.190012
0.29477334 2.8884594 2.1908147
0.29541001 2.9093621 2.1910124
0.29491958 2.9295166 2.1909249
0.29422122 2.9510365 2.189676
0.29396036 2.9701371 2.1893446
0.29424468 2.9899213 2.19015
0.2941395 3.0104849 2.1902652
0.29407707 3.0305793 2.189925
0.29325724 3.0511668 2.1895387
0.29341218 3.0717258 2.1890957
0.29434273 3.0862908 2.1914275
0.33862001 1.597 2.2142501
0.34206498 1.5961 2.2101002
0.37944999 1.591 2.2125001
0.38293001 1.5911 2.2155001
0.33430597 1.6103399 2.2086399
0.34429199 1.6142801 2.2021
0.32940203 1.6284001 2.2120402
0.34376502 1.62295 2.2025499
0.33210799 1.6466599 2.2107799
0.34338197 1.6487601 2.2026601
0.33463499 1.6702833 2.2084501
0.341515 1.6693749 2.2040501
0.33303544 1.6878182 2.2103455
0.34310499 1.686975 2.2016749
0.33398503 1.7081251 2.210875
0.34569597 1.7118499 2.20204
0.33208001 1.7376 2.2093
0.34782335 1.7308999 2.2008834
0.33082497 1.7442623 2.2123249
0.34408003 1.7519 2.2056251
0.33290812 1.7695251 2.2114439
0.3468 1.7715667 2.2032001
0.32704502 1.7897301 2.21488
0.34756663 1.7870001 2.2024333
0.31698999 1.8138 2.2197001
0.33375999 1.8101749 2.2121623
0.34575114 1.8079109 2.2041669
0.33602214 1.8282143 2.2108786
0.34553334 1.8292667 2.204
0.33418 1.8490124 2.2123375
0.34351569 1.8476285 2.2043142
0.33363101 1.8676602 2.2130699
0.34615248 1.8721751 2.2041249
0.32918 1.8889999 2.2148714
0.34571499 1.8860499 2.2044499
0.33007997 1.91122 2.2141399
0.34841004 1.9077858 2.203043
0.33620125 1.9331875 2.2119625
0.34693199 1.92746 2.20344
0.33430877 1.9514874 2.2140374
0.34283999 1.9511223 2.2059221
0.33233002 1.9654124 2.2152624
0.34667796 1.9755001 2.20506
0.33491001 1.9895167 2.2146335
0.34614167 1.9891667 2.2043498
0.33171901 2.00388 2.2156999
0.34779 2.0137 2.2061
0.33474669 2.0357666 2.2127001
0.34549001 2.0297201 2.2049003
0.3320325 2.0506001 2.2153001
0.34683698 2.05127 2.2040601
0.333857 2.0689199 2.2141802
0.34405729 2.0702 2.2062273
0.33508638 2.0893545 2.213691
0.34573802 2.0904999 2.2047801
