# .PCD v0.7 - Point Cloud Data file format
VERSION 0.7
FIELDS x y z
SIZE 4 4 4
TYPE F F F
COUNT 1 1 1
WIDTH 1494
HEIGHT 1
VIEWPOINT 0 0 0 1 0 0 0
POINTS 1494
DATA ascii
-17.964033 -6.3527451 -1.4563963
-18.002724 -6.3028631 -1.4579238
-17.947065 -6.2201633 -1.4518141
-17.579802 -5.969461 -1.4189745
-18.014343 -6.0539198 -1.4525778
-18.156273 -6.0381866 -1.4625059
-18.175152 -5.9811196 -1.4625059
-18.203335 -5.9270749 -1.4632697
-18.240847 -5.8759737 -1.4647971
-18.278217 -5.8246894 -1.4663244
-18.314438 -5.7764287 -1.467852
-18.322975 -5.7158976 -1.4670882
-18.388483 -5.672996 -1.4709069
-18.425287 -5.6210179 -1.4724342
-18.452402 -5.5659819 -1.4731979
-18.469797 -5.507987 -1.4731979
-18.515703 -5.4583883 -1.475489
-18.705072 -5.450387 -1.4892359
-18.971226 -5.4633117 -1.5090923
-19.295185 -5.4909911 -1.5335311
-19.6387 -5.522079 -1.5594972
-19.992205 -5.5537353 -1.5862272
-20.134556 -5.5251884 -1.5961554
-20.161436 -5.4645166 -1.5969191
-20.178505 -5.4011483 -1.5969191
-20.195374 -5.3377314 -1.5969191
-20.240986 -5.2818065 -1.5992101
-20.189888 -5.2007899 -1.5938642
-20.196465 -5.1348767 -1.5931004
-20.270525 -5.0859594 -1.5976828
-20.253647 -4.946672 -1.5938642
-20.201233 -4.8666754 -1.5885183
-20.30373 -4.8239255 -1.5953916
-20.29937 -4.7555656 -1.5938642
-20.265633 -4.6805582 -1.5900457
-20.299683 -4.6212964 -1.5915731
-20.32383 -4.5596795 -1.5923369
-20.260166 -4.4786 -1.5862272
-20.303364 -4.421288 -1.5885183
-20.268408 -4.3470335 -1.5846997
-20.281963 -4.2833343 -1.5846997
-20.285557 -4.2175694 -1.583936
-20.288214 -4.1553636 -1.5831723
-20.292107 -4.0860939 -1.5824085
-20.26572 -4.014575 -1.5793538
-20.268446 -3.9489856 -1.57859
-20.27096 -3.8834128 -1.5778264
-20.253662 -3.8141799 -1.5755352
-20.304764 -3.7577844 -1.57859
-20.296848 -3.6904135 -1.5770626
-20.278894 -3.621372 -1.5747714
-20.319635 -3.5628123 -1.5770626
-20.301249 -3.4938853 -1.5747714
-20.341619 -3.4350708 -1.5770626
-20.312962 -3.3646319 -1.5740076
-20.333275 -3.3024004 -1.5747714
-20.323856 -3.2353694 -1.5732441
-20.28466 -3.1638284 -1.5694255
-20.353096 -3.112668 -1.5740076
-20.352915 -3.0472336 -1.5732441
-20.372252 -2.984725 -1.5740076
-20.36179 -2.9178793 -1.5724803
-20.381227 -2.8517265 -1.5732441
-20.340691 -2.7809315 -1.5694255
-20.339441 -2.7156994 -1.5686617
-20.377073 -2.6592026 -1.5709529
-20.375435 -2.5939174 -1.5701892
-20.383924 -2.526335 -1.5701892
-20.351736 -2.4610598 -1.5671344
-20.290049 -2.3889582 -1.5617883
-20.314568 -2.2625284 -1.5625521
-20.381056 -2.2051244 -1.5671344
-20.377966 -2.1400468 -1.5663707
-20.364748 -2.0739954 -1.5648432
-20.36124 -2.009032 -1.5640795
-20.387304 -1.9469466 -1.565607
-20.32382 -1.8764805 -1.560261
-20.369339 -1.8161577 -1.5633157
-20.34514 -1.749599 -1.5610245
-20.350536 -1.6856716 -1.5610245
-20.395491 -1.6248968 -1.5640795
-20.311018 -1.553974 -1.5572062
-20.36552 -1.4938027 -1.5610245
-20.320381 -1.4263262 -1.5572062
-20.324762 -1.3624834 -1.5572062
-20.338894 -1.2992566 -1.5579698
-20.313017 -1.2335459 -1.5556786
-20.346655 -1.1714386 -1.5579698
-20.340279 -1.1069736 -1.5572062
-20.303825 -1.041026 -1.5541513
-20.336872 -0.97867227 -1.5564424
-20.319925 -0.91388577 -1.554915
-20.347565 -0.72304058 -1.5564424
-20.343508 -0.53098315 -1.5556786
-20.355043 -0.46729478 -1.5564424
-20.366381 -0.40354455 -1.5572062
-20.347609 -0.33922634 -1.5556786
-20.299524 -0.20731814 -1.5518601
-20.350428 -0.019580314 -1.5556786
-20.296095 0.42686832 -1.5518601
-20.274717 0.49014184 -1.5503327
-20.283045 0.55411023 -1.5510964
-20.319025 0.68287861 -1.5541513
-20.356634 0.74818045 -1.5572062
-20.35153 0.87606955 -1.5572062
-20.328758 0.93907672 -1.5556786
-20.325706 1.0029395 -1.5556786
-20.342371 1.067834 -1.5572062
-20.388691 1.1345131 -1.5610245
-20.355167 1.1967995 -1.5587336
-20.401064 1.2638309 -1.5625521
-20.396994 1.3279138 -1.5625521
-20.412617 1.3933488 -1.5640795
-20.437975 1.4596008 -1.5663707
-20.443232 1.5245465 -1.5671344
-20.40852 1.5864397 -1.5648432
-20.473001 1.6561837 -1.5701892
-20.517376 1.724671 -1.5740076
-20.462193 1.7847861 -1.5701892
-20.496206 1.8526524 -1.5732441
-20.510979 2.1141555 -1.5762988
-20.526869 2.5076401 -1.5808811
-20.538677 2.5745943 -1.5824085
-20.579933 2.6454692 -1.5862272
-20.660488 2.7218354 -1.5931004
-20.61231 2.7813947 -1.5900457
-20.633102 2.8502297 -1.5923369
-20.604301 2.9122465 -1.5908095
-20.654259 2.9855235 -1.5953916
-20.672123 3.4537747 -1.602265
-20.690659 3.5237229 -1.6045562
-20.728605 3.5972383 -1.6083747
-20.697565 3.6588655 -1.6068473
-20.685318 3.7274818 -1.6068473
-20.742817 3.8014266 -1.6121932
-20.71117 3.8629184 -1.6106659
-20.79418 4.0137639 -1.6190666
-20.801035 4.0829163 -1.620594
-20.768549 4.1443377 -1.6190666
-20.735443 4.5457373 -1.6228852
-20.735649 4.6825228 -1.6251763
-20.75971 4.756556 -1.6282312
-20.76409 4.8262649 -1.6297587
-20.816757 4.9074969 -1.6351047
-20.79154 4.9705486 -1.6343409
-20.7952 5.0405445 -1.6358683
-20.866407 5.1272678 -1.6427418
-20.840521 5.1903882 -1.641978
-20.862782 5.2655954 -1.6450328
-20.846134 5.3311148 -1.6450328
-20.866949 5.4102221 -1.6480877
-20.831516 5.4670529 -1.6465603
-20.823874 5.5350294 -1.647324
-20.825638 5.6056099 -1.6488514
-20.827164 5.67625 -1.6503787
-20.827448 5.7505941 -1.6519063
-20.790075 5.8106251 -1.6503787
-20.829283 5.8922024 -1.6549611
-20.839424 5.9658422 -1.6572522
-20.705851 6.0686107 -1.6496152
-20.697311 6.1328521 -1.6503787
-20.762812 6.2272406 -1.6572522
-20.753786 6.2917109 -1.6580158
-20.752983 6.3627295 -1.6595434
-20.769861 6.4433355 -1.6625983
-20.663895 6.4816861 -1.6557249
-20.481861 6.4953218 -1.6427418
-20.318935 6.5139613 -1.631286
-20.156096 6.5316482 -1.6198304
-19.993349 6.5483708 -1.6083747
-19.831842 6.5606771 -1.5969191
-19.650379 6.5691943 -1.583936
-19.506845 6.5893989 -1.5740076
-19.33392 6.6024804 -1.5617883
-19.190554 6.6208992 -1.5518601
-19.056677 6.6417694 -1.5426955
-18.97929 6.6817312 -1.5381134
-18.976994 6.7480092 -1.5396408
-18.946318 6.8042202 -1.538877
-18.906101 6.8569098 -1.5373496
-18.875103 6.9128389 -1.5365859
-18.862644 6.9755645 -1.5373496
-18.821957 7.0278091 -1.5358222
-18.809114 7.0904255 -1.5365859
-18.786747 7.1494789 -1.5365859
-18.764193 7.2084665 -1.5365859
-18.760046 7.2745891 -1.5381134
-18.709246 7.3225875 -1.5358222
-18.649057 7.3666697 -1.5327674
-18.625822 7.4252238 -1.5327674
-18.602404 7.4836993 -1.5327674
-18.551085 7.5308518 -1.5304762
-18.527334 7.5890923 -1.5304762
-18.503401 7.6472626 -1.5304762
-18.488489 7.7091908 -1.5312399
-18.454987 7.7633715 -1.5304762
-18.402973 7.8096213 -1.5281851
-18.396679 7.8752441 -1.5297124
-18.353542 7.925096 -1.5281851
-18.319414 7.9787316 -1.5274215
-18.268921 8.0936775 -1.5274215
-18.243402 8.1510334 -1.5274215
-16.430819 7.4651871 -1.3792615
-16.017519 7.3381529 -1.346422
-15.731899 7.2671537 -1.3242744
-17.599245 9.1634369 -1.5167294
-17.624958 9.2434053 -1.5213118
-17.59421 9.3018017 -1.5213118
-17.564899 9.3570318 -1.5213118
-17.509062 9.398016 -1.5190206
-17.49699 9.4624662 -1.520548
-17.432158 9.4982996 -1.5174931
-17.42845 9.5674171 -1.5197843
-17.39831 9.6221209 -1.5197843
-17.367992 9.676734 -1.5197843
-17.328814 9.726366 -1.5190206
-17.30685 9.7856684 -1.5197843
-17.276024 9.8399887 -1.5197843
-17.227726 9.8842907 -1.5182568
-17.19659 9.9383621 -1.5182568
-17.156666 9.9873238 -1.5174931
-17.090803 10.020995 -1.5144384
-17.076406 10.084783 -1.5159658
-17.036072 10.13328 -1.515202
-16.995602 10.181623 -1.5144384
-16.91231 10.204058 -1.5098561
-16.846088 10.236423 -1.5068012
-16.779827 10.268476 -1.5037463
-16.637144 10.253123 -1.4938182
-16.560701 10.281939 -1.4899997
-16.487846 10.304603 -1.486181
-16.428272 10.343284 -1.4838899
-16.387276 10.389505 -1.4831262
-16.320942 10.41947 -1.4800713
-16.288126 10.470695 -1.4800713
-16.196564 10.483879 -1.4747254
-16.096724 10.491153 -1.4686157
-16.038681 10.525253 -1.4663244
-15.988898 10.564597 -1.4647971
-15.914124 10.587154 -1.4609785
-15.8725 10.631551 -1.4602149
-15.80596 10.659059 -1.45716
-15.698159 10.658246 -1.4502866
-15.672828 10.71314 -1.4510504
-15.606241 10.73971 -1.4479954
-15.597011 10.805725 -1.4502866
-15.522099 10.826144 -1.446468
-15.463531 10.857667 -1.4441769
-15.396779 10.883166 -1.4411221
-15.395006 10.954612 -1.4441769
-15.384831 11.020341 -1.446468
-15.307773 11.04213 -1.4426495
-15.214605 11.051807 -1.4373035
-15.093206 11.03217 -1.4289026
-15.042412 11.067716 -1.4273753
-14.967508 11.08524 -1.4235567
-14.950541 11.141519 -1.4250842
-14.827732 11.122611 -1.4166833
-14.822589 11.195763 -1.4197382
-14.755597 11.21813 -1.4166833
-14.688613 11.240189 -1.4136286
-14.597937 11.243687 -1.4082826
-14.570421 11.295598 -1.4090462
-14.595757 11.392941 -1.4151559
-14.550057 11.43512 -1.4143922
-14.508245 11.472054 -1.4136286
-14.481945 11.521258 -1.4143922
-14.406763 11.535535 -1.4105736
-14.360668 11.576988 -1.4098099
-14.270034 11.578064 -1.404464
-14.2027 11.597611 -1.4014091
-14.173897 11.648501 -1.4021728
-14.075769 11.64213 -1.3960631
4.4323206 23.901346 -1.8588719
4.4944372 23.81872 -1.8535258
4.5485573 23.696774 -1.8451251
4.6134219 23.633436 -1.8413064
5.1318502 23.505896 -1.8397791
5.2013516 23.47019 -1.8382517
5.2750564 23.453733 -1.8382517
5.3572459 23.455553 -1.8397791
5.4579206 23.555166 -1.8489436
5.536468 23.557314 -1.850471
5.6150699 23.559204 -1.8519984
5.6984234 23.580214 -1.8550533
5.7748451 23.57188 -1.855817
5.8705125 23.640709 -1.8626903
5.9471841 23.631821 -1.8634541
6.0682182 23.796589 -1.8779646
6.1554179 23.825676 -1.8817831
6.2630744 23.931612 -1.8917114
6.3714442 24.037111 -1.9016397
6.439167 23.988087 -1.8993485
6.5380363 24.054333 -1.9062219
6.6823816 24.283617 -1.9260783
6.8137426 24.443811 -1.940589
6.9040518 24.470263 -1.9444075
7.0247025 24.601851 -1.9566268
7.1407113 24.713766 -1.9673188
7.2546935 24.81562 -1.977247
7.3778844 24.945683 -1.9894663
7.5091915 25.08346 -2.0024495
7.6168551 25.155174 -2.0100865
7.7046018 25.159721 -2.0123775
7.8278542 25.278259 -2.0238333
7.9280996 25.320145 -2.0291793
8.0136223 25.314127 -2.0307069
8.0931063 25.288826 -2.0307069
8.1817188 25.291737 -2.0329978
8.2797279 25.322771 -2.0375803
8.359251 25.296631 -2.0375803
8.451313 25.308075 -2.0406349
8.5371523 25.300295 -2.0421624
8.6358995 25.329973 -2.0467446
8.7251863 25.330996 -2.0490358
8.7916098 25.265793 -2.0459809
8.885273 25.264719 -2.0482721
8.957921 25.21789 -2.0467446
9.0370979 25.189625 -2.0467446
8.9690437 24.514351 -1.9963398
9.0287304 24.439291 -1.9925213
9.1019754 24.401466 -1.9917575
9.1645412 24.335423 -1.9887027
9.2309961 24.267628 -1.9856478
9.3000488 24.219887 -1.9841204
9.3616724 24.153364 -1.9810655
9.4302368 24.105267 -1.9795382
9.4985914 24.056976 -1.9780108
9.563056 23.999226 -1.9757196
9.6272402 23.941315 -1.9734285
9.6911545 23.883234 -1.9711373
9.7585773 23.834217 -1.9696099
9.8219938 23.775795 -1.9673188
9.9007845 23.743093 -1.9673188
9.9559879 23.66592 -1.9635001
10.030284 23.634527 -1.9635001
10.088783 23.566238 -1.9604454
10.150905 23.506968 -1.9581542
10.244624 23.52066 -1.9619727
10.378628 23.62529 -1.9734285
11.022634 24.046614 -2.0230696
11.177614 24.183828 -2.0375803
12.071462 25.692329 -2.1712296
12.199072 25.753397 -2.1796303
12.314293 25.786924 -2.18574
12.455798 25.873886 -2.1964321
12.680704 26.130634 -2.2216344
12.924858 26.422052 -2.2498918
13.179787 26.730078 -2.2796764
13.43706 27.025484 -2.3086975
13.696131 27.33078 -2.3384821
13.975233 27.670311 -2.3713217
14.247569 27.990574 -2.4026339
13.16116 25.656864 -2.2055964
13.305804 25.739391 -2.2162883
14.825342 28.027737 -2.4255452
14.932077 28.01622 -2.4286001
26.185741 20.365334 -2.5378106
26.068115 20.142763 -2.5202453
26.138668 19.936245 -2.5148995
26.274828 19.773031 -2.5156629
26.296886 19.660543 -2.5118444
26.395823 19.477177 -2.5095534
26.481014 19.411827 -2.5118444
26.557985 19.340281 -2.5133719
26.545902 19.204161 -2.5064986
26.638489 19.143946 -2.5095534
26.633583 19.013809 -2.5034437
26.725718 18.953117 -2.5064986
26.736216 18.834616 -2.5019162
26.814869 18.75728 -2.5034437
26.898228 18.690016 -2.5057347
26.965027 18.611074 -2.5064986
27.039808 18.537548 -2.5080259
27.056702 18.424454 -2.5042076
27.114447 18.339365 -2.5042076
27.21331 18.281895 -2.5080259
27.22085 18.163097 -2.5034437
27.302708 18.094017 -2.5057347
27.351088 18.002676 -2.504971
27.427332 17.922785 -2.5064986
27.475134 17.831106 -2.5057347
27.709288 17.614155 -2.5118444
27.772917 17.532341 -2.5126081
27.743383 17.392038 -2.504971
27.77249 17.288992 -2.5026801
27.809702 17.191175 -2.5011525
27.872066 17.108942 -2.5019162
27.959742 17.04204 -2.504971
27.987551 16.938637 -2.5026801
28.000828 16.820061 -2.4988613
28.104912 16.762657 -2.5034437
28.02874 16.598083 -2.4919882
27.874451 16.388678 -2.473659
27.719131 16.180389 -2.4553297
27.542732 15.968071 -2.4354734
27.350784 15.742213 -2.4140894
27.212355 15.542645 -2.3972878
27.035534 15.329215 -2.3774314
26.875015 15.126844 -2.3591022
26.696083 14.91591 -2.3392458
26.559694 14.730427 -2.3232081
26.407473 14.531719 -2.3056426
26.231726 14.333782 -2.2865498
26.101326 14.156244 -2.2712758
25.92861 13.951511 -2.252183
25.778807 13.766668 -2.2353811
25.680965 13.610918 -2.2231617
25.520632 13.423418 -2.2055964
25.385889 13.250916 -2.1903224
25.259167 13.083978 -2.1758118
25.096178 12.899736 -2.1582465
24.985582 12.743815 -2.1452634
24.829767 12.56622 -2.1284616
24.719805 12.407784 -2.1154785
24.578014 12.245475 -2.1002045
24.437593 12.079835 -2.0849302
24.343218 11.932908 -2.0734746
24.201244 11.769176 -2.0582004
24.067465 11.610788 -2.04369
25.049511 -2.0884318 -1.9222599
25.171963 -2.1783011 -1.932188
25.274235 -2.2671776 -1.940589
25.366268 -2.3557949 -1.9482261
25.388515 -2.4383352 -1.9505171
25.321199 -2.5121732 -1.9459349
95.228294 -29.621937 -2.8542473
104.03126 -32.719181 -3.1212695
104.13753 -33.112488 -3.1275659
92.387856 -36.913136 -2.8473785
84.425591 -34.657913 -2.6118379
83.584137 -41.616844 -2.6722257
83.712067 -42.009247 -2.6805253
72.64167 -41.751835 -2.3977623
62.852623 -43.308346 -2.1842592
62.473862 -43.905128 -2.1851177
49.433605 -46.127357 -1.9346949
49.069847 -46.077148 -1.9261088
48.903053 -46.21048 -1.9252503
48.880775 -46.480988 -1.9301156
48.915058 -46.807098 -1.9372705
-28.131746 -31.833481 -1.2151945
-28.20504 -31.715073 -1.2140496
-28.276718 -31.584131 -1.2126186
-28.342352 -31.458008 -1.2111877
-28.375145 -31.307121 -1.2086118
-28.446409 -31.188286 -1.2074671
-28.47666 -31.025124 -1.2046051
-28.51972 -30.87677 -1.2023156
-28.575752 -30.743092 -1.2005984
-28.610733 -30.587471 -1.1980226
-28.631321 -30.417372 -1.1948744
-28.651115 -30.247452 -1.1917262
-28.65634 -30.063231 -1.1880057
-28.709124 -29.929781 -1.1862885
-28.719702 -29.753136 -1.1828541
-28.752144 -29.610426 -1.1805645
-28.900911 -29.577147 -1.1828541
-29.098824 -29.593111 -1.1871471
-29.254925 -29.565498 -1.1897229
-29.220707 -29.345947 -1.1845713
-29.333977 -29.275188 -1.1854298
-29.319344 -29.077309 -1.181137
-29.225428 -28.802637 -1.1736958
-29.272924 -28.668716 -1.1719787
-29.262547 -28.479015 -1.1679718
-29.200979 -28.241016 -1.1619617
-29.296762 -28.156071 -1.1622479
-29.3417 -28.022469 -1.1605307
-27.80291 -26.056438 -1.0898399
-27.81879 -25.90766 -1.0872642
-27.936733 -25.85408 -1.0886952
-28.069321 -25.813551 -1.0906986
-28.165037 -25.738722 -1.0912709
-28.285677 -25.695368 -1.0929881
-27.241087 -24.435904 -1.0466242
-27.213247 -24.257093 -1.0426174
-27.266872 -24.151594 -1.0417588
-27.290081 -24.01959 -1.0397553
-27.372936 -23.940315 -1.0400416
-33.288017 -23.37142 -1.1633927
-33.459671 -23.335337 -1.1668271
-33.590332 -23.269951 -1.1688305
-33.663273 -23.164305 -1.1688305
-33.595581 -22.962555 -1.1639651
-33.725449 -22.896193 -1.1659684
-33.768036 -22.761883 -1.1648238
-33.744064 -22.600409 -1.1616756
-33.85651 -22.521971 -1.1631064
-28.614359 -18.905729 -0.98079872
-28.372738 -18.618336 -0.97049564
-28.405968 -18.512732 -0.96963704
-28.463985 -18.423405 -0.96963704
-28.546951 -18.350101 -0.97049564
-28.680288 -18.308735 -0.9730714
-33.697968 -20.920212 -1.1344868
-34.282589 -21.134193 -1.1519448
-34.280605 -20.984644 -1.1496552
-34.491581 -20.965097 -1.1545206
-34.50592 -20.825651 -1.1528034
-34.545456 -20.701727 -1.1519448
-34.490051 -20.521551 -1.147938
-34.545742 -20.408016 -1.1476518
-34.571659 -20.285185 -1.146507
-34.592026 -20.151323 -1.145076
-34.759003 -20.102592 -1.1485103
-34.847992 -20.008232 -1.149369
-34.954102 -19.923397 -1.1508
-35.068718 -19.843025 -1.1525172
-35.052444 -19.688707 -1.1499414
-35.201431 -19.627159 -1.1528034
-35.324139 -19.550358 -1.1548067
-35.499283 -19.501846 -1.1585274
-35.639359 -19.433294 -1.1611031
-35.726608 -19.335501 -1.1619617
-28.38484 -14.240908 -0.90810454
-36.104156 -17.822311 -1.1516585
-36.061218 -17.660437 -1.1485103
-35.999638 -17.490284 -1.1447899
-35.802273 -17.255589 -1.1367763
-35.847286 -17.138721 -1.1364901
-35.782406 -16.832315 -1.1310524
-35.880405 -16.740944 -1.1324834
-35.905602 -16.615553 -1.1316248
-35.993965 -16.519339 -1.1327696
-36.127563 -16.443449 -1.1353453
-36.443268 -16.44911 -1.143645
-36.631622 -16.395792 -1.147938
-36.847412 -16.353607 -1.1530896
-30.978292 -11.81903 -0.94817227
-31.164883 -11.778179 -0.9527514
-31.529385 -11.802854 -0.96276826
-35.249752 -13.069209 -1.0752438
-35.590908 -13.068649 -1.0844022
-35.218441 -12.806485 -1.0718095
-35.314926 -12.7161 -1.0735266
-35.382954 -12.615158 -1.0743853
-35.478962 -12.523902 -1.0761025
-35.240604 -11.452288 -1.0597892
-36.225651 -10.164004 -1.0761025
-36.450062 -10.103545 -1.0818264
-36.587677 -10.018012 -1.0849746
-36.647915 -9.9108505 -1.0858332
-36.669216 -9.7930861 -1.085547
-36.738457 -9.688036 -1.0866917
-36.739693 -9.565012 -1.0858332
-36.749069 -8.3443079 -1.0778197
-36.855385 -8.0039577 -1.0786783
-31.815748 -6.8109593 -0.93042791
-31.748959 -6.6924186 -0.92785215
-31.818764 -6.6027999 -0.92928308
-32.014496 -6.5443892 -0.93443465
-36.917751 -7.4122715 -1.076961
-36.882019 -7.2846313 -1.0752438
-36.894909 -7.1668262 -1.0749576
-37.359077 -7.1352415 -1.0878365
-38.245853 -7.1801081 -1.113022
-38.671257 -7.1342487 -1.124756
-39.115177 -7.0961847 -1.1370625
-40.308353 -7.1818719 -1.17112
-41.503716 -7.2528801 -1.2051775
-41.782452 -7.1663742 -1.2126186
-41.94276 -7.0582986 -1.2166255
-41.836514 -6.905334 -1.2129048
-41.946808 -6.7882404 -1.2154806
-40.596615 -1.164158 -1.1616756
-41.156532 2.9627421 -1.1802783
-35.168159 4.0921378 -1.0125667
-35.304005 4.2204113 -1.0168595
-35.320335 4.3349509 -1.0177181
-39.293385 4.9481282 -1.1327696
-39.099201 5.0485034 -1.127618
-38.422867 5.2067904 -1.1090152
-38.198399 5.2986174 -1.1030051
-37.835178 5.3694253 -1.0929881
-37.600494 5.4566627 -1.0866917
-37.197548 5.5175481 -1.0755301
-37.002136 5.607408 -1.0703784
-36.875679 5.70681 -1.0672303
-36.906937 5.8304262 -1.0686613
-36.819359 5.9352102 -1.066658
-36.741348 6.0411139 -1.0649408
-36.909492 6.1879263 -1.0703784
-37.402229 6.3914242 -1.0852607
-37.578918 6.5432034 -1.0909847
-37.13496 6.5861425 -1.0786783
-36.405842 6.5748343 -1.058072
-36.463661 6.7036328 -1.0603616
-36.373642 6.8052874 -1.0583582
-36.479736 6.9438252 -1.0620788
-36.503971 7.7839255 -1.0675166
-36.020172 7.7991304 -1.0540652
-36.249325 7.9680567 -1.0615064
-35.599735 7.9425664 -1.0431898
-36.644993 8.660634 -1.076961
-36.764694 8.9332008 -1.0821126
-36.697628 9.0390882 -1.0809679
-36.659348 9.1519146 -1.0806816
-41.189476 13.230503 -1.2375178
-41.052635 13.328972 -1.2346559
-40.93692 13.425794 -1.2323662
-40.866081 13.544893 -1.2315077
-40.756977 13.650991 -1.2295043
-40.676018 13.766141 -1.2283595
-40.573399 13.881537 -1.2266424
-40.491798 13.995875 -1.2254976
-40.428757 14.116418 -1.2249252
-40.337078 14.226728 -1.2234942
-40.263931 14.343321 -1.2226355
-40.199867 14.46297 -1.2220632
-40.128586 14.571954 -1.2212045
-40.063839 14.69106 -1.2206322
-39.996155 14.816892 -1.2200598
-39.911964 14.928457 -1.218915
-39.864864 15.053776 -1.218915
-39.817379 15.178935 -1.218915
-39.750835 15.296775 -1.2183427
-39.632786 15.681762 -1.2192012
-39.611172 15.817321 -1.2200598
-39.589104 15.95289 -1.2209184
-39.566566 16.088486 -1.221777
-39.506584 16.20891 -1.2214909
-39.510876 16.355888 -1.223208
-39.505421 16.499195 -1.2246389
-39.490234 16.638754 -1.2257837
-39.492966 16.786192 -1.2275009
-39.495155 16.933823 -1.2292181
-39.496807 17.081619 -1.2309352
-39.50708 17.233603 -1.2329386
-39.525944 17.389835 -1.2352283
-39.553349 17.550409 -1.2378041
-39.561882 17.703171 -1.2398075
-39.551628 17.847925 -1.2412384
-39.752922 22.178661 -1.3021985
28.405844 -6.0997448 -2.3649769
28.532608 -6.220829 -2.3771634
28.600502 -6.3298349 -2.3844752
28.629097 -6.4305859 -2.3885374
28.579601 -6.513845 -2.3861001
28.568707 -6.605845 -2.3869123
28.528406 -6.6910081 -2.3852875
28.516941 -6.782908 -2.3861001
28.51487 -6.87714 -2.3877249
28.464079 -6.9595809 -2.3852875
28.451748 -7.0513687 -2.3861001
28.439121 -7.143147 -2.3869123
28.377907 -7.2226157 -2.3836629
28.364725 -7.3142219 -2.3844752
28.279671 -7.4820929 -2.3812256
28.236771 -7.5657363 -2.3796005
28.232101 -7.6596303 -2.3812256
28.236731 -7.7562118 -2.3836629
28.212225 -7.844882 -2.3836629
28.158659 -7.9253674 -2.3812256
28.143208 -8.0165234 -2.3820379
28.089153 -8.096612 -2.3796005
28.092281 -8.1931934 -2.3820379
28.066404 -8.2814074 -2.3820379
28.011599 -8.3609819 -2.3796005
27.956572 -8.4402943 -2.3771634
27.910852 -8.5222559 -2.3755386
27.883942 -8.6098986 -2.3755386
27.86475 -8.7052917 -2.3763509
27.818256 -8.7867813 -2.3747261
27.781021 -8.8710966 -2.3739135
27.72456 -8.9491386 -2.3714764
27.735788 -9.043726 -2.3747261
27.688307 -9.1245737 -2.3731012
27.657896 -9.216341 -2.3731012
27.666588 -9.3159151 -2.3763509
27.64662 -9.4059982 -2.3771634
27.616934 -9.4928055 -2.3771634
27.549316 -9.5664349 -2.3739135
27.500317 -9.6463346 -2.3722887
27.479269 -9.7360125 -2.3731012
27.495466 -9.8390923 -2.3771634
27.46442 -9.9254227 -2.3771634
27.348843 -9.9808874 -2.3698516
27.336054 -10.073652 -2.3714764
27.285591 -10.152527 -2.3698516
27.393507 -10.290799 -2.3820379
27.519459 -10.436921 -2.3958492
27.700603 -10.605326 -2.414535
27.927444 -10.792946 -2.437283
28.144089 -10.97847 -2.4592185
28.332024 -11.154503 -2.4787169
28.435768 -11.298685 -2.4909034
28.437134 -11.402807 -2.4941528
28.447363 -11.51079 -2.4982152
28.401834 -11.596333 -2.4974027
28.227039 -11.628531 -2.4852164
28.22718 -11.732459 -2.488466
28.153419 -11.805656 -2.4852164
19.175108 -18.509712 -2.1691818
19.181751 -19.227779 -2.2106156
18.416357 -19.90781 -2.207366
18.387444 -20.002262 -2.2114282
18.290911 -20.02313 -2.207366
18.254705 -20.110018 -2.2106156
18.171415 -20.145061 -2.2081785
16.924398 -19.000799 -2.070878
16.818392 -19.001621 -2.0651913
13.639616 -15.704524 -1.6922868
13.549163 -15.900667 -1.6995987
15.712109 -18.796421 -1.9936974
15.544749 -18.715324 -1.9798862
15.238522 -18.464214 -1.9482015
14.940346 -18.219078 -1.9173293
14.838976 -18.211824 -1.9116422
14.781689 -18.258354 -1.9116422
14.730501 -18.312469 -1.9124547
14.68534 -18.374231 -1.9140795
13.368134 -17.052557 -1.7629679
14.376106 -18.692671 -1.9189541
14.33546 -18.761507 -1.9213915
12.345406 -16.368029 -1.6679139
12.176876 -16.357313 -1.6589774
12.10173 -16.363426 -1.6557275
12.032566 -16.377264 -1.6532904
11.969308 -16.39888 -1.6516654
11.929428 -16.452543 -1.6532904
11.792239 -19.692926 -1.8677713
11.664123 -19.618486 -1.8572096
11.607497 -19.663618 -1.858022
11.55574 -19.717188 -1.8596469
11.518792 -19.796473 -1.863709
11.476477 -19.867088 -1.8669587
9.0414534 -19.097504 -1.719097
8.9644747 -19.089722 -1.7158471
8.8993807 -19.098166 -1.7142224
8.8309803 -19.107933 -1.7125975
8.787509 -19.171827 -1.7158471
8.6901369 -19.117668 -1.7085353
8.6464081 -19.181225 -1.7117851
8.5820408 -19.199194 -1.7109727
8.5903025 -19.380981 -1.7247839
8.4291782 -19.179731 -1.7044733
8.3688812 -19.206118 -1.7044733
8.3124533 -19.241467 -1.7052857
8.2245121 -19.203344 -1.6995987
8.2186413 -19.357542 -1.7109727
8.1036921 -19.254641 -1.6995987
8.0469971 -19.289204 -1.7004112
8.0091953 -19.369659 -1.7052857
8.0008135 -19.513233 -1.7158471
7.9807196 -19.639854 -1.7247839
8.0085287 -19.897387 -1.7450947
7.8940792 -19.78219 -1.7329082
7.8685188 -19.89959 -1.7410326
8.0603056 -20.573883 -1.7979023
8.0821342 -20.822123 -1.8174007
6.872654 -17.870228 -1.5574238
6.9193082 -18.161861 -1.5809842
6.6655707 -17.831499 -1.5484871
6.7097979 -18.123442 -1.5720476
7.7174911 -21.257153 -1.8401487
7.6304541 -21.225012 -1.8352741
7.570416 -21.26766 -1.8368989
7.1779637 -21.213995 -1.8222753
7.070169 -21.113564 -1.8117137
6.9542069 -20.973608 -1.7979023
6.7175202 -20.474445 -1.7532189
5.1110663 -19.174417 -1.6142937
5.0229268 -19.084349 -1.6053572
4.9178758 -18.926382 -1.5907334
4.9053912 -19.125187 -1.6061696
4.8037477 -18.976234 -1.5923582
4.7030892 -18.826834 -1.578547
4.6963348 -19.054432 -1.5964204
4.6505628 -19.127203 -1.6012949
4.5904498 -19.14172 -1.6012949
1.7315321 -18.857603 -1.5403628
1.6529791 -18.644527 -1.5224894
1.602859 -18.74894 -1.5306138
1.5447645 -18.763817 -1.5314262
1.4897273 -18.818256 -1.5354882
1.4358681 -18.892412 -1.5411752
1.3805306 -18.90653 -1.5419877
1.3391137 -19.169291 -1.5631108
1.2696373 -19.034172 -1.551737
1.2167557 -19.147484 -1.5606735
1.1500176 -19.041775 -1.551737
1.0845226 -18.945784 -1.5436126
1.030888 -19.058575 -1.5525492
0.96466589 -19.002163 -1.5476747
0.91348463 -19.114456 -1.5566114
0.85188967 -19.007553 -1.5476747
0.79418838 -19.139736 -1.5582364
0.73557168 -19.181974 -1.561486
0.67008853 -19.034777 -1.5492996
0.61091882 -19.056713 -1.5509244
0.55561131 -19.217943 -1.5639232
0.48913887 -18.980465 -1.544425
0.43039814 -19.021765 -1.5476747
0.36968067 -18.9732 -1.5436126
0.31257626 -18.924383 -1.5395504
0.25507897 -19.074764 -1.551737
0.19564833 -19.125303 -1.555799
0.13116701 -18.966379 -1.5428002
0.074965805 -18.98662 -1.544425
0.015332866 -19.016661 -1.5468622
-0.044279348 -18.966782 -1.5428002
-0.10380763 -18.956581 -1.5419877
-0.16238509 -18.846529 -1.5330509
-0.22561045 -18.905685 -1.5379256
-0.28215957 -18.93483 -1.5403628
-0.3403652 -18.864092 -1.5346758
-0.39791521 -18.783213 -1.5281764
-0.45814872 -18.83169 -1.5322385
-0.517582 -18.84012 -1.5330509
-0.57923025 -18.918098 -1.5395504
-0.63459063 -18.796654 -1.5298014
-0.69475019 -18.824446 -1.5322385
-0.7530821 -18.802254 -1.5306138
-0.80973053 -18.819851 -1.5322385
-0.85821199 -18.588221 -1.5135527
-0.92351568 -18.7248 -1.5249268
-0.97446018 -18.572508 -1.5127403
-1.0155551 -18.260862 -1.487555
-1.0682174 -18.177986 -1.4810556
-1.1290332 -18.234226 -1.4859302
-1.185012 -18.210699 -1.4843054
-1.2633393 -18.515139 -1.5094906
-1.2937083 -18.123362 -1.477806
-1.3927433 -18.725739 -1.527364
-1.4059389 -18.134995 -1.4794308
-1.4563946 -18.011021 -1.4696817
-1.5062708 -17.926903 -1.4631823
-1.5721377 -18.031301 -1.4721189
-1.6458745 -18.214872 -1.487555
-1.7207799 -18.398155 -1.5029912
-1.7631755 -18.233932 -1.4899924
-1.8390844 -18.446806 -1.5078658
-1.834637 -17.836163 -1.4583076
-1.8885542 -17.81049 -1.4566828
-1.9488384 -17.844099 -1.4599324
-2.0227466 -17.996357 -1.4729313
-2.0918941 -18.098822 -1.481868
-2.125175 -17.894218 -1.4656194
-2.2091992 -18.115 -1.4843054
-2.2623765 -18.078302 -1.481868
-2.333148 -18.179846 -1.4908048
-2.3615911 -17.955034 -1.4729313
-2.4388294 -18.125744 -1.487555
-2.482131 -18.019258 -1.4794308
-2.5554564 -18.129801 -1.48918
-2.5810497 -17.904661 -1.4713064
-2.6241822 -17.807726 -1.4639947
-2.6682181 -17.720551 -1.4574953
-2.7542341 -17.909094 -1.4737438
-2.8306189 -18.028349 -1.4843054
-2.8177319 -17.586367 -1.4485586
-2.7618291 -16.898746 -1.392501
-2.8116212 -16.870325 -1.3908761
-3.0538285 -17.637953 -1.4558704
-3.0849462 -17.490862 -1.4444963
-3.1310551 -17.432037 -1.4404342
-3.2091494 -17.549564 -1.4509957
-3.2770536 -17.607985 -1.4566828
-3.2810376 -17.343573 -1.4355597
-3.3505993 -17.411474 -1.4420592
-3.3458486 -17.097658 -1.4168739
-3.4287639 -17.233683 -1.4290603
-3.486845 -17.242361 -1.430685
-3.5269318 -17.162987 -1.424998
-3.5543149 -17.024996 -1.4144366
-3.6202061 -17.072241 -1.419311
-3.6444061 -16.924383 -1.4079372
-3.6826353 -16.844696 -1.4022502
-3.7463479 -16.881691 -1.4063122
-3.7423496 -16.617048 -1.3851892
-3.7983017 -16.635019 -1.3876265
-3.8753181 -16.729807 -1.3965632
-3.9050298 -16.620529 -1.3884389
-3.9803576 -16.705128 -1.3965632
-4.0609422 -16.808788 -1.4063122
-4.1255984 -16.844347 -1.4103744
-4.1472383 -16.705561 -1.3998128
-4.1802216 -16.615129 -1.3933134
-4.2052813 -16.495684 -1.3843766
-4.2271371 -16.3666 -1.3746276
-4.3012662 -16.440014 -1.3819395
-4.4270196 -16.705793 -1.4054998
-4.4326272 -16.528942 -1.3916886
-4.5263705 -16.668819 -1.4046874
-4.5840054 -16.673737 -1.4063122
-4.5989108 -16.524837 -1.3949383
-4.6724463 -16.587049 -1.4014378
-4.7026482 -16.495617 -1.3949383
-4.7986979 -16.63397 -1.4079372
-4.8509316 -16.618813 -1.4079372
-4.9144197 -16.641722 -1.4111868
-4.9923792 -16.712141 -1.4184986
-5.044857 -16.696375 -1.4184986
-5.1118646 -16.7281 -1.4225609
-5.1437726 -16.645306 -1.4168739
-5.2019906 -16.648087 -1.4184986
-5.2543669 -16.642084 -1.419311
-5.2884221 -16.568531 -1.4144366
-5.3649549 -16.62771 -1.420936
-5.407886 -16.582348 -1.4184986
-5.4256024 -16.461163 -1.4095621
-5.4709845 -16.425127 -1.4079372
-5.5034647 -16.351187 -1.4030627
-5.5548062 -16.333817 -1.4030627
-5.5801601 -16.240885 -1.3965632
-5.6507821 -16.279762 -1.4014378
-5.6391811 -16.083244 -1.3860016
-5.739635 -16.20636 -1.398188
-5.7703619 -16.131947 -1.3933134
-5.7606125 -15.955403 -1.3795022
-5.8414631 -16.021494 -1.386814
-5.8917675 -16.003063 -1.386814
-5.9767718 -16.077887 -1.3949383
-6.1078687 -16.273628 -1.4136242
-6.0882745 -16.067974 -1.3973755
-6.213562 -16.244238 -1.4144366
-6.264564 -16.224638 -1.4144366
-6.30826 -16.186304 -1.4128116
-6.3919411 -16.249874 -1.4201236
-6.3987947 -16.118561 -1.4103744
-6.4605298 -16.126133 -1.4128116
-6.4999442 -16.078039 -1.4103744
-6.3997216 -15.688442 -1.3778772
-6.6236162 -16.092176 -1.415249
-6.7123928 -16.163324 -1.4233733
-6.7207403 -16.04105 -1.4144366
-6.7749848 -16.029036 -1.415249
-6.86834 -16.108509 -1.4241856
-6.9464984 -16.150938 -1.4298728
-6.9666119 -16.066254 -1.4241856
-6.981082 -15.962114 -1.4168739
-7.0352187 -15.949221 -1.4176862
-7.1055603 -15.972568 -1.4217484
-7.2087765 -16.068367 -1.43231
-7.1934447 -15.900367 -1.419311
-7.3013148 -16.004622 -1.430685
-7.3390555 -15.954446 -1.4282478
-7.3513737 -15.849946 -1.420936
-7.394145 -15.819036 -1.4201236
-7.4395537 -15.786715 -1.419311
-7.4505935 -15.682253 -1.4119992
-7.499824 -15.658769 -1.4119992
-7.5489802 -15.63513 -1.4119992
-7.602427 -15.620298 -1.4128116
-7.6338921 -15.560551 -1.4095621
-7.7844162 -15.741948 -1.4282478
-7.7848954 -15.619306 -1.419311
-7.7685513 -15.471459 -1.4079372
-7.8441367 -15.500327 -1.4128116
-7.8592343 -15.403215 -1.4063122
-7.8593116 -15.291198 -1.398188
-7.9440055 -15.337221 -1.4046874
-7.9736919 -15.276853 -1.4014378
-8.054142 -15.313465 -1.4071248
-8.0321617 -15.15601 -1.3949383
-8.0515499 -15.077957 -1.3900636
-8.2122841 -15.263206 -1.4095621
-8.4350386 -14.775076 -1.3835642
-8.4192028 -14.646311 -1.3738152
-8.2902765 -14.317957 -1.3453802
-8.3553133 -14.326275 -1.34863
-8.4911985 -14.454614 -1.3632536
-8.5771923 -14.496477 -1.369753
-8.581852 -14.400977 -1.3632536
-8.6065245 -14.339768 -1.3600039
-8.6824837 -14.363828 -1.3648784
-8.7638636 -14.396063 -1.3705654
-8.7465019 -14.266514 -1.3608164
-8.7912779 -14.238966 -1.3608164
-8.835968 -14.211277 -1.3608164
-8.8463516 -14.134316 -1.3559419
-8.9226141 -14.157037 -1.3608164
-8.993762 -14.171002 -1.3648784
-8.9737997 -14.041919 -1.3551294
-8.9908876 -13.971757 -1.3510672
-9.0238914 -13.926717 -1.3494422
-9.0675983 -13.898298 -1.3494422
-9.1550179 -13.936373 -1.3559419
-9.1052361 -13.766251 -1.3421305
-9.0986938 -13.662932 -1.3348187
-9.1582308 -13.659109 -1.3372558
-9.1787815 -13.597235 -1.3340063
-9.3055296 -13.691954 -1.3461926
-9.151413 -13.374817 -1.3177576
-9.2499542 -13.428062 -1.325882
-9.326189 -13.448066 -1.3307564
-9.3455591 -13.38602 -1.3275069
-9.3416958 -13.291374 -1.3210075
-9.4041214 -13.29614 -1.324257
-9.3764439 -13.169124 -1.314508
-9.3829145 -13.091006 -1.3096334
-9.4414988 -13.085707 -1.3120707
-9.4532633 -13.01567 -1.3080086
-9.4705658 -12.953731 -1.3047588
-9.5112143 -12.923914 -1.3047588
-9.5042849 -12.829915 -1.2982594
-9.5862684 -12.85591 -1.3039464
-9.6086531 -12.801824 -1.3015091
-9.690897 -12.827229 -1.3071961
-9.7130394 -12.772925 -1.3047588
-9.6500893 -12.607833 -1.2909476
-9.7383327 -12.640602 -1.297447
-9.7902174 -12.625695 -1.2990718
-9.817564 -12.579165 -1.297447
-9.8570337 -12.548261 -1.297447
-9.9025927 -12.525047 -1.2982594
-9.9356823 -12.48608 -1.297447
-10.043426 -12.540355 -1.3063837
-10.080589 -12.510501 -1.3063837
-10.107279 -12.463292 -1.3047588
-10.15269 -12.439197 -1.3055713
-10.261337 -12.491937 -1.314508
-10.319592 -12.482675 -1.3169452
-10.365131 -12.457854 -1.3177576
-10.365812 -12.379392 -1.3128831
-10.423926 -12.369625 -1.3153205
-10.494983 -12.37481 -1.3193825
-10.533806 -12.34178 -1.3193825
-10.550891 -12.287792 -1.3169452
-10.615521 -12.284741 -1.320195
-10.595175 -12.183663 -1.3128831
-10.685932 -12.210301 -1.3193825
-10.711057 -12.161716 -1.3177576
-10.757943 -12.133586 -1.3185701
-10.756179 -12.055122 -1.3136955
-10.83852 -12.07506 -1.3193825
-10.90982 -12.077918 -1.3234446
-10.947708 -12.043586 -1.3234446
-10.951844 -11.972373 -1.3193825
-11.03667 -11.989224 -1.3250695
-11.09461 -11.976419 -1.3275069
-11.152574 -11.963371 -1.329944
-11.162819 -11.899207 -1.3266944
-11.213834 -11.878572 -1.3283193
-11.326634 -11.922743 -1.3372558
-11.384704 -11.90871 -1.3396932
-11.380588 -11.829801 -1.3348187
-11.424629 -11.801149 -1.3356311
-11.466548 -11.774337 -1.3364434
-11.559311 -11.795184 -1.3429428
-11.624311 -11.78719 -1.3461926
-11.654263 -11.74354 -1.3453802
-11.733369 -11.74917 -1.3502548
-11.75609 -11.698195 -1.34863
-11.79987 -11.66821 -1.3494422
-11.808024 -11.603148 -1.3461926
-11.851551 -11.572957 -1.3470051
-11.842913 -11.496103 -1.3421305
-11.943552 -11.521094 -1.3494422
-11.979686 -11.483518 -1.3494422
-12.015705 -11.445824 -1.3494422
-12.0154 -11.373774 -1.3453802
-12.03655 -11.322315 -1.3437554
-12.103169 -11.309548 -1.3470051
-12.109413 -11.244352 -1.3437554
-12.194004 -11.255679 -1.3494422
-12.236654 -11.224048 -1.3502548
-12.242381 -11.158706 -1.3470051
-12.24043 -11.086744 -1.3429428
-12.252968 -11.028242 -1.3405057
-12.265261 -10.969766 -1.3380684
-12.299662 -10.931181 -1.3380684
-12.318997 -10.879293 -1.3364434
-12.330634 -10.820827 -1.3340063
-12.387108 -10.801681 -1.3364434
-13.616739 -9.6584873 -1.3575666
-13.655166 -9.621398 -1.358379
-13.726162 -9.6070166 -1.3624413
-13.764461 -9.5695314 -1.3632536
-13.786253 -9.5205832 -1.3624413
-13.824316 -9.4828577 -1.3632536
-13.862276 -9.4449921 -1.364066
-13.933161 -9.4293165 -1.3681282
-13.929621 -9.363265 -1.3648784
-14.017004 -9.35818 -1.3705654
-14.096188 -9.3471298 -1.3754401
-14.167109 -9.3301973 -1.3795022
-14.111313 -9.233572 -1.3713778
-14.123531 -9.178339 -1.369753
-14.169047 -9.1447296 -1.3713778
-14.308416 -9.1675587 -1.3819395
-14.468594 -9.0824804 -1.3892514
-14.505516 -9.0422487 -1.3900636
-14.601663 -9.0385818 -1.3965632
-14.604508 -8.9770126 -1.3941259
-14.700709 -8.9726086 -1.4006253
-14.626521 -8.8644199 -1.3908761
-14.739713 -8.869792 -1.3990004
-14.861641 -8.8796444 -1.4079372
-14.93233 -8.858326 -1.4119992
-14.968677 -8.8164244 -1.4128116
-15.056537 -8.8045578 -1.4184986
-15.118609 -8.7772169 -1.4217484
-15.187764 -8.7572002 -1.4258106
-15.267108 -8.7391376 -1.430685
-15.346493 -8.7206602 -1.4355597
-15.417224 -8.6968775 -1.4396218
-16.461449 -7.4039617 -1.4680568
-14.383491 -6.3617501 -1.2787611
-14.313478 -6.2235975 -1.269012
-14.332959 -6.1786017 -1.269012
-14.277902 -6.1047268 -1.2625126
-14.269476 -6.0481801 -1.2600753
-14.288405 -6.0033231 -1.2600753
-14.325601 -5.9660606 -1.2617002
-14.3627 -5.928627 -1.263325
-14.408935 -5.8947868 -1.2657623
-14.465358 -5.8619323 -1.269012
-14.539203 -5.8387275 -1.2738866
-14.593507 -5.8102984 -1.2771362
-14.972296 -5.9095626 -1.3088208
-15.010379 -5.8671303 -1.3104458
-14.972965 -5.7983661 -1.3055713
-14.991106 -5.7513003 -1.3055713
-15.046372 -5.7183247 -1.3088208
-17.062088 -6.3612399 -1.4810556
-17.100691 -6.314508 -1.4826806
-17.11108 -6.2573352 -1.481868
-17.149401 -6.2103281 -1.483493
-17.168825 -6.1564236 -1.483493
-17.216261 -6.1124487 -1.4859302
-17.244783 -6.0616369 -1.4867426
-17.263742 -6.0074286 -1.4867426
-17.291954 -5.956409 -1.487555
-17.291712 -5.8956256 -1.4859302
-17.337868 -5.7900171 -1.4867426
-17.422224 -5.7573943 -1.4924296
-17.430752 -5.6995349 -1.4916171
-17.477022 -5.6539445 -1.4940544
-17.532675 -5.6111498 -1.4973042
-17.521706 -5.5470276 -1.4948668
-17.567583 -5.5008783 -1.4973042
-17.613342 -5.4545002 -1.4997414
-17.639923 -5.4020524 -1.5005538
-17.752207 -5.3754687 -1.5086782
-18.017282 -5.3939195 -1.5298014
-18.300816 -5.4196057 -1.5525492
-18.604742 -5.4460096 -1.5769222
-18.899437 -5.4677839 -1.6004825
-19.165697 -5.4795532 -1.6216056
-19.23078 -5.4328485 -1.6256678
-19.257353 -5.3750858 -1.6264802
-19.274145 -5.314558 -1.6264802
-19.281128 -5.2513666 -1.6256678
-19.307158 -5.1933508 -1.6264802
-19.275208 -5.1198916 -1.622418
-19.320122 -5.0668869 -1.6248554
-19.355244 -5.0111594 -1.6264802
-19.361233 -4.947866 -1.6256678
-19.357353 -4.882144 -1.6240429
-19.382267 -4.8237138 -1.6248554
-19.358604 -4.7532997 -1.6216056
-19.363754 -4.6901183 -1.6207931
-19.368698 -4.6269464 -1.6199807
-19.392839 -4.5683603 -1.6207931
-19.368261 -4.4984021 -1.6175435
-19.353148 -4.4308701 -1.6151061
-19.347527 -4.3656635 -1.6134813
-19.360395 -4.3082395 -1.6134813
-19.334888 -4.2388716 -1.6102316
-19.34811 -4.1781058 -1.6102316
-19.351391 -4.1152334 -1.6094192
-19.344711 -4.0503364 -1.6077943
-19.337818 -3.9855275 -1.6061696
-19.340475 -3.922775 -1.6053572
-19.37225 -3.8658938 -1.6069819
-19.374521 -3.8030956 -1.6061696
-19.366798 -3.7384396 -1.6045446
-19.378448 -3.6775761 -1.6045446
-19.389906 -3.6166813 -1.6045446
-19.410976 -3.5575397 -1.6053572
-19.402437 -3.4930167 -1.6037322
-19.4035 -3.43031 -1.6029198
-19.433823 -3.372741 -1.6045446
-19.424671 -3.308327 -1.6029198
-19.395641 -3.2407291 -1.5996701
-19.425402 -3.1829956 -1.6012949
-19.425463 -3.1203775 -1.6004825
-19.464708 -3.0639741 -1.6029198
-19.464388 -3.0012953 -1.6021073
-19.473721 -2.9401338 -1.6021073
-19.44342 -2.8731213 -1.5988578
-19.481943 -2.8162961 -1.6012949
-19.490696 -2.7550752 -1.6012949
-19.499254 -2.6938324 -1.6012949
-19.477989 -2.6285672 -1.5988578
-19.476269 -2.5660655 -1.5980452
-19.484234 -2.504864 -1.5980452
-19.492006 -2.4436426 -1.5980452
-19.407598 -2.3127589 -1.589921
-19.404867 -2.2506337 -1.5891085
-19.490694 -2.2019737 -1.5956079
-19.478445 -2.1317627 -1.5939831
-19.465223 -2.0684607 -1.5923582
-19.481539 -2.0083151 -1.5931705
-19.458 -1.9441403 -1.5907334
-19.493773 -1.88587 -1.5931705
-19.459908 -1.8209184 -1.589921
-19.415592 -1.7586906 -1.5858588
-19.450808 -1.7002789 -1.5882961
-19.446407 -1.6349353 -1.5874836
-19.441513 -1.573036 -1.5866711
-19.416548 -1.5096388 -1.584234
-19.460953 -1.4515896 -1.5874836
-19.455475 -1.3897392 -1.5866711
-19.429914 -1.3265802 -1.584234
-19.44371 -1.2695719 -1.5850464
-19.437654 -1.2078635 -1.584234
-19.461254 -1.1479632 -1.5858588
-19.454813 -1.0862627 -1.5850464
-19.468082 -1.0256625 -1.5858588
-19.441343 -0.96302813 -1.5834216
-19.434473 -0.89809483 -1.5826091
-19.456968 -0.84128398 -1.584234
-19.429638 -0.77896178 -1.5817966
-19.45191 -0.718651 -1.5834216
-19.464033 -0.6578688 -1.584234
-19.466003 -0.5967201 -1.584234
-19.447855 -0.53501761 -1.5826091
-19.469368 -0.4744004 -1.584234
-19.450832 -0.41281316 -1.5826091
-19.452034 -0.35170713 -1.5826091
-19.453043 -0.29059243 -1.5826091
-19.433926 -0.22925043 -1.5809842
-19.454485 -0.16836023 -1.5826091
-19.464884 -0.1072961 -1.5834216
-19.455158 -0.046121374 -1.5826091
-19.444761 0.13716318 -1.5817966
-19.421572 0.38109982 -1.5801717
-19.398869 0.50259924 -1.578547
-19.397194 0.56353754 -1.578547
-19.405289 0.62479889 -1.5793593
-19.430859 0.74787128 -1.5817966
-19.44833 0.80974358 -1.5834216
-19.465605 0.87173826 -1.5850464
-19.422947 0.93096459 -1.5817966
-19.449789 0.99351525 -1.584234
-19.476427 1.0562384 -1.5866711
-19.473013 1.1174228 -1.5866711
-19.449511 1.177381 -1.5850464
-19.495447 1.2416614 -1.5891085
-19.471561 1.3015645 -1.5874836
-19.497204 1.3648286 -1.589921
-19.542521 1.4297214 -1.5939831
-19.498182 1.4880668 -1.5907334
-19.553022 1.5540667 -1.5956079
-19.538111 1.6146655 -1.5947955
-19.572664 1.679455 -1.5980452
-19.547436 1.7391666 -1.5964204
-19.595652 1.867642 -1.6012949
-19.629364 1.93311 -1.6045446
-19.623194 1.9947705 -1.6045446
-19.671164 2.3750548 -1.6118566
-19.663603 2.4368443 -1.6118566
-19.645964 2.4973452 -1.611044
-19.726969 2.5706706 -1.618356
-19.718796 2.6326294 -1.618356
-19.740051 2.6986253 -1.6207931
-19.731476 2.7606244 -1.6207931
-19.722704 2.8226018 -1.6207931
-19.782772 2.894666 -1.6264802
-19.773581 2.9568036 -1.6264802
-19.754612 3.0809858 -1.6264802
-19.764521 3.1461675 -1.628105
-19.764376 3.2098472 -1.6289175
-19.764029 3.2735517 -1.6297299
-19.783129 3.3406153 -1.6321672
-19.733248 3.3959744 -1.6289175
-19.761747 3.4648499 -1.6321672
-19.778811 3.5960896 -1.6354169
-19.753828 3.7842135 -1.6362293
-19.766138 3.9800658 -1.6402913
-19.760256 4.1082439 -1.6419163
-19.717999 4.1641192 -1.639479
-19.841246 4.2553391 -1.650853
-19.833582 4.3842282 -1.6524779
-19.81971 4.4465184 -1.6524779
-19.815361 4.5109744 -1.6532904
-19.80109 4.5732064 -1.6532904
-19.825439 4.6444917 -1.65654
-19.834623 4.7783141 -1.6597898
-19.829193 4.8429723 -1.6606021
-19.833231 4.9100366 -1.6622269
-19.856375 4.9820356 -1.6654768
-19.859943 5.0493059 -1.6671016
-19.843983 5.1116757 -1.6671016
-19.80854 5.168951 -1.6654768
-19.869286 5.2515535 -1.6719762
-19.81418 5.3036275 -1.6687263
-19.835897 5.3762865 -1.6719762
-19.866964 5.4517794 -1.6760383
-19.868944 5.5195041 -1.6776631
-19.861099 5.5846 -1.6784756
-19.843458 5.6469655 -1.6784756
-19.816042 5.7065196 -1.6776631
-19.817154 5.7743244 -1.679288
-19.818033 5.8421969 -1.6809127
-19.818684 5.9101272 -1.6825377
-19.790476 5.9694824 -1.6817253
-19.819288 6.0461779 -1.6857874
-19.752365 6.161674 -1.6833501
-19.770929 6.235702 -1.6865999
-19.770231 6.3038411 -1.6882247
-19.7693 6.3720431 -1.6898495
-19.768137 6.4402962 -1.6914744
-19.757273 6.5054898 -1.6922868
-19.698912 6.5549269 -1.6890371
-19.55542 6.5754557 -1.6784756
-19.364813 6.5790987 -1.6638519
-19.221508 6.5978074 -1.6532904
-19.078278 6.6156745 -1.6427287
-18.92572 6.629416 -1.6313548
-18.754477 6.6356053 -1.618356
-18.611536 6.6508536 -1.6077943
-18.468685 6.6652756 -1.5972328
-18.316566 6.6754451 -1.5858588
-18.192625 6.6950645 -1.5769222
-18.068741 6.7139664 -1.5679854
-17.982243 6.7461758 -1.5622984
-17.98773 6.8163743 -1.5647358
-17.947613 6.8657207 -1.5631108
-17.898062 6.9112945 -1.5606735
-17.876263 6.9674864 -1.5606735
-17.846235 7.0168452 -1.5598611
-17.816074 7.0660872 -1.5590487
-17.792543 7.1251292 -1.5590487
-17.733112 7.1660461 -1.555799
-17.719742 7.2254848 -1.5566114
-17.67852 7.27353 -1.5549865
-17.663507 7.3359404 -1.555799
-17.62199 7.3836842 -1.5541741
-17.589529 7.4351234 -1.5533617
-17.575251 7.4942603 -1.5541741
-17.534626 7.5384951 -1.5525492
-16.414234 7.2405109 -1.45912
-16.408346 7.3030105 -1.460745
-16.367136 7.3463564 -1.45912
-16.298584 7.3771744 -1.455058
-16.021479 7.3123913 -1.43231
-15.799267 7.2709551 -1.4144366
-15.64075 7.257586 -1.4022502
-15.465685 7.2321386 -1.3884389
-15.397818 7.2594213 -1.3843766
-15.38266 7.3147264 -1.3851892
-15.368589 7.3673296 -1.3860016
-15.381261 7.4329314 -1.3892514
-15.366791 7.4855857 -1.3900636
-15.370035 7.5470104 -1.392501
-15.364112 7.6041093 -1.3941259
-15.357984 7.6612415 -1.3957508
-15.405066 7.7452936 -1.4022502
-15.407325 7.8071728 -1.4046874
-15.506972 7.9190407 -1.4160615
-16.332706 8.4708633 -1.4964918
-16.314844 8.5267534 -1.4973042
-16.287977 8.5779638 -1.4973042
-16.243341 8.6197443 -1.4956794
-16.18103 8.6519203 -1.4924296
-16.092356 8.6696062 -1.4867426
-16.030008 8.701088 -1.483493
-15.976363 8.737052 -1.4810556
-15.93138 8.7775726 -1.4794308
-16.539778 9.1808777 -1.5387379
-16.545647 9.2522602 -1.5419877
-16.499132 9.2944069 -1.5403628
-16.487186 9.3560362 -1.5419877
-16.466364 9.4127369 -1.5428002
-16.419439 9.4544668 -1.5411752
-16.398277 9.5110092 -1.5419877
-16.368317 9.5624762 -1.5419877
-16.321016 9.6037397 -1.5403628
-16.299339 9.6600485 -1.5411752
-16.226126 9.6856537 -1.5371132
-16.221239 9.7519932 -1.5395504
-16.207571 9.8132372 -1.5411752
-16.168154 9.8589125 -1.5403628
-16.1371 9.9096594 -1.5403628
-16.114367 9.9655495 -1.5411752
-16.091438 10.021395 -1.5419877
-16.068317 10.077198 -1.5428002
-16.011303 10.111653 -1.5403628
-15.945822 10.140503 -1.5371132
-15.93067 10.2013 -1.5387379
-15.906918 10.256703 -1.5395504
-15.849545 10.290335 -1.5371132
-15.773632 10.31555 -1.5330509
-15.707855 10.343121 -1.5298014
-15.625453 10.359357 -1.5249268
-15.576252 10.397325 -1.523302
-15.493889 10.412834 -1.5184274
-15.419831 10.43352 -1.5143652
-15.329329 10.442614 -1.5086782
-15.329317 10.51328 -1.5119278
-15.279815 10.550055 -1.510303
-15.181135 10.552479 -1.5038036
-15.123416 10.582967 -1.5013664
-15.065656 10.613196 -1.498929
-14.991596 10.631637 -1.4948668
-14.933792 10.661299 -1.4924296
-14.835488 10.661613 -1.4859302
-14.769629 10.684789 -1.4826806
-14.719876 10.719398 -1.4810556
-14.678092 10.759692 -1.4802432
-14.636197 10.799833 -1.4794308
-14.578199 10.827924 -1.4769936
-14.520166 10.85576 -1.4745562
-14.446182 10.871344 -1.4704942
-14.404013 10.910655 -1.4696817
-14.369666 10.955851 -1.4696817
-14.317448 10.9913 -1.4680568
-14.282845 11.036226 -1.4680568
-14.193044 11.038193 -1.4623698
-14.213221 11.12575 -1.4680568
-14.162544 11.158004 -1.4664319
-14.072768 11.159075 -1.460745
-14.068793 11.228111 -1.4639947
-13.97907 11.228544 -1.4583076
-13.835238 11.18465 -1.4469336
-13.71501 11.158838 -1.4379969
-13.703013 11.220823 -1.4404342
-13.690765 11.282839 -1.4428716
-13.624571 11.300335 -1.4396218
-13.550756 11.311134 -1.4355597
-13.492264 11.334411 -1.4331224
-13.372888 11.30593 -1.4241856
-13.35248 11.360811 -1.4258106
-13.294019 11.383247 -1.4233733
-13.235545 11.405431 -1.420936
-13.131899 11.388163 -1.4136242
-13.146605 11.477548 -1.419311
-13.155394 11.558279 -1.4241856
-13.119019 11.599548 -1.4241856
-13.114326 11.664928 -1.4274354
-13.003369 11.639574 -1.419311
-13.025968 11.733751 -1.4258106
-12.974274 11.761224 -1.4241856
-12.913124 11.784019 -1.4217484
-12.883377 11.831275 -1.4225609
-12.831511 11.858155 -1.420936
-12.816082 11.918779 -1.4233733
-12.764026 11.945356 -1.4217484
-12.753352 12.014965 -1.424998
-12.695951 12.032177 -1.4225609
2.9915898 21.681734 -1.7808415
3.0666659 21.721573 -1.7849035
3.1386814 21.711283 -1.7849035
3.2054231 21.691456 -1.7840911
3.2869639 21.769972 -1.7914029
3.3522942 21.739838 -1.7897781
3.4205725 21.7292 -1.7897781
3.5030777 21.80691 -1.7970899
3.5796368 21.844975 -1.8011522
3.6465993 21.823792 -1.8003397
3.7117879 21.792578 -1.7987149
3.797703 21.858704 -1.8052143
3.8680918 21.85648 -1.8060267
3.943826 21.883451 -1.8092763
4.0215573 21.91997 -1.8133385
4.0977249 21.946415 -1.8165882
4.1834111 22.021557 -1.8239001
4.2545199 21.997778 -1.8230876
4.9355206 22.814569 -1.8994559
4.9943261 22.740545 -1.8945813
5.0831065 22.802565 -1.9010807
5.1635323 22.825363 -1.9043304
5.2508354 22.877028 -1.9100175
5.3294635 22.88954 -1.9124547
5.40593 22.892084 -1.9140795
5.4987402 22.962217 -1.9213915
5.5896783 23.02231 -1.9278909
5.6803083 23.061708 -1.9327654
5.7938046 23.208134 -1.9465766
5.8691301 23.199482 -1.9473891
5.9642868 23.267815 -1.9547009
6.0749617 23.39366 -1.9668874
6.1829772 23.489042 -1.9766365
6.2978497 23.623583 -1.9896353
6.3902292 23.671034 -1.9953223
6.4803395 23.708525 -2.0001969
6.5840616 23.793707 -2.0091336
6.6937504 23.897665 -2.019695
6.7823939 23.924463 -2.0237575
6.8712711 23.950937 -2.0278194
6.954833 23.957943 -2.0302567
7.0356832 23.955101 -2.0318816
7.1165838 23.951986 -2.0335064
7.1975346 23.948603 -2.0351312
7.2843485 23.964012 -2.0383811
7.3784256 23.987356 -2.042443
7.4567199 23.973572 -2.0432556
7.5409713 23.978552 -2.0456929
7.6283498 23.992733 -2.0489426
7.7067361 23.97814 -2.0497551
