# .PCD v0.7 - Point Cloud Data file format
VERSION 0.7
FIELDS x y z
SIZE 4 4 4
TYPE F F F
COUNT 1 1 1
WIDTH 1491
HEIGHT 1
VIEWPOINT 0 0 0 1 0 0 0
POINTS 1491
DATA ascii
4.7832642 -9.9649658 -1.5322306
4.7912388 -9.8621387 -1.5198294
4.8593187 -9.8065968 -1.5170736
5.0272732 -9.7972822 -1.5264432
5.1670895 -9.6928511 -1.5225853
-5.4763703 -9.3383942 -1.5005387
-5.7446795 -9.2224703 -1.5060503
-5.9271231 -9.0648994 -1.5012276
-6.2184901 -8.8615246 -1.5005387
0.40243036 -8.8758678 -1.6058894
0.52385348 -8.8628893 -1.6046985
0.67120725 -8.9104509 -1.6151186
0.79672307 -8.9051409 -1.6160117
-6.4118462 -8.722641 -1.5005387
-0.026353549 -8.7176704 -1.5755222
0.068928167 -8.758687 -1.5830247
0.22046049 -8.7902632 -1.5892172
0.3664735 -8.8207092 -1.5956181
0.49929929 -8.8314285 -1.5987442
-0.82071674 -8.5662432 -1.5551584
-0.65775979 -8.5664806 -1.5526575
-0.52360803 -8.579668 -1.553372
-0.37671602 -8.596199 -1.5549798
-0.21637271 -8.6443768 -1.5627203
-0.094990648 -8.6876535 -1.5701632
-6.9725614 -8.4167604 -1.5150068
-6.8273377 -8.4554958 -1.5063949
-6.711966 -8.5022345 -1.5014572
-2.1969304 -8.4259834 -1.5737358
-2.0837774 -8.4244804 -1.568377
-1.8294644 -8.4028006 -1.5540866
-1.2863172 -8.4131632 -1.5380098
-1.1536279 -8.422595 -1.5362234
-0.94277495 -8.4553938 -1.5374144
-0.89829099 -8.5427122 -1.5523002
-0.73775589 -8.5481949 -1.5505139
-7.2739062 -8.2931995 -1.5291302
-7.1151156 -8.3193521 -1.5174181
-7.034822 -8.3841963 -1.5170736
-6.8919868 -8.3997688 -1.5060503
-2.6172171 -8.2639771 -1.5665907
-2.4433439 -8.2999315 -1.5636135
-2.3301356 -8.3476477 -1.5662929
-2.1450465 -8.3345747 -1.5552775
-1.9997869 -8.3663759 -1.5545331
-1.8932163 -8.3785248 -1.5523002
-1.7324839 -8.3348284 -1.5383669
-1.5830876 -8.330739 -1.532353
-1.4211718 -8.3299379 -1.5269942
-1.2601776 -8.3724251 -1.5299714
-7.7004933 -8.11514 -1.5508323
-7.577106 -8.1630058 -1.5439427
-7.4385004 -8.2161722 -1.5363643
-7.3477497 -8.244524 -1.5308527
-2.9078553 -8.1243944 -1.5594454
-2.7835319 -8.1660309 -1.5591477
-2.6437006 -8.21665 -1.5598921
-2.5003386 -8.2075424 -1.5505139
-8.0060911 -7.9760566 -1.5666784
-7.8642583 -8.0327291 -1.5584108
-7.747879 -8.0629168 -1.5501434
-2.9181762 -8.0998497 -1.5558729
-11.2131 -7.8702412 -1.5418638
-8.1128149 -7.8817525 -1.5680561
-8.0840244 -7.9254131 -1.5694339
-7.8263822 -7.9452891 -1.5460095
-7.7819958 -7.9472351 -1.5418758
-11.313791 -7.7305069 -1.5422375
-8.439249 -7.6987004 -1.5836725
-8.335433 -7.773469 -1.5801127
-8.1657019 -7.7838879 -1.5639224
-4.6967688 -7.6750269 -1.6264319
-4.5734878 -7.7166343 -1.6213708
-4.4644771 -7.7500815 -1.6166072
-28.072475 -7.5501142 -1.5214062
-11.453237 -7.5646815 -1.5448546
-11.3945 -7.6291609 -1.543359
-8.5777731 -7.5577431 -1.5849354
-8.5007038 -7.6332951 -1.5839021
-4.8759127 -7.5126662 -1.6188402
-4.7413607 -7.5701261 -1.6145233
-28.03054 -7.3973384 -1.5172193
-11.56136 -7.429142 -1.546724
-11.517879 -7.4781113 -1.5456023
-8.703969 -7.4083467 -1.584591
-8.657649 -7.4623699 -1.5845909
-5.0243878 -7.4059763 -1.6176281
-4.9388247 -7.4803691 -1.6201799
-28.147232 -7.2864184 -1.521668
-11.707795 -7.2151175 -1.5478456
-11.677865 -7.2728319 -1.5484064
-5.2556744 -7.2247701 -1.614821
-5.1728587 -7.3002391 -1.6172028
-28.237526 -7.0736332 -1.5234996
-28.195807 -7.1574001 -1.522453
-11.775549 -7.1326504 -1.5495281
-5.4387012 -7.0714478 -1.6124392
-5.3440108 -7.155437 -1.6142255
-28.211136 -6.9729133 -1.5208828
-11.86616 -7.0103831 -1.5512105
-11.844079 -7.0476255 -1.5512105
-5.6024442 -6.9403009 -1.6121415
-5.5135632 -7.0079865 -1.6116948
5.6373477 -6.9056993 -1.6112483
-28.223202 -6.8818822 -1.5203595
-28.137875 -6.7675047 -1.5146025
-5.7552114 -6.7973585 -1.6098192
-5.6702271 -6.8701873 -1.6100575
5.64676 -6.7856264 -1.5955288
-28.022963 -6.6468124 -1.5072755
-12.124626 -6.6363716 -1.555697
-9.4054651 -6.6330619 -1.5956142
-5.893435 -6.6594849 -1.6073185
-5.8277826 -6.7327433 -1.6094621
-28.063154 -6.5632939 -1.5083222
-28.025249 -6.4616365 -1.5051821
-25.744846 -6.510396 -1.5335273
-12.175977 -6.5626478 -1.5568187
-9.5002871 -6.5007863 -1.5959587
-9.4244347 -6.5801401 -1.5935473
-6.0437269 -6.4938593 -1.6033885
-5.9713478 -6.5791707 -1.6058894
-27.996717 -6.3625021 -1.5025653
-9.62292 -6.3434277 -1.5979108
-9.5632324 -6.4123764 -1.5963032
-6.1121984 -6.3641324 -1.5948143
-27.977591 -6.2657857 -1.5004718
-9.6906013 -6.2578206 -1.5992886
-6.1625886 -6.2007809 -1.579988
-6.1458597 -6.279542 -1.5880263
-9.8307171 -6.06989 -1.6018147
-6.1873055 -6.0712152 -1.5665907
-9.9376097 -5.9223318 -1.6038816
-9.8823767 -5.9951081 -1.6025038
-6.2191348 -5.9335699 -1.553372
-10.05652 -5.7182293 -1.6038816
-6.2481604 -5.7761893 -1.5376525
-23.995363 -5.6400118 -1.5741879
-21.557781 -5.6214962 -1.5823944
-21.265987 -5.6525335 -1.5628762
-20.805063 -5.6000195 -1.5302275
-20.623768 -5.6207471 -1.5181617
-19.992205 -5.5537353 -1.5862272
-12.769022 -5.5955887 -1.5691565
-10.121259 -5.6432929 -1.6066375
-6.3317976 -5.5837812 -1.5255057
-6.2797723 -5.6618733 -1.5278873
-21.644819 -5.4629955 -1.5855883
-21.598558 -5.5235543 -1.583459
-20.158165 -5.4636178 -1.5966644
-19.6387 -5.522079 -1.5594972
-19.262981 -5.4619198 -1.5795994
-19.165697 -5.4795532 -1.6216056
-18.971226 -5.4633117 -1.5090923
-18.899437 -5.4677839 -1.6004825
-18.604742 -5.4460096 -1.5769222
-18.300816 -5.4196057 -1.5525492
-17.639923 -5.4020524 -1.5005538
-12.846268 -5.4856796 -1.5722411
-10.218962 -5.4961357 -1.6087043
-10.188608 -5.5418763 -1.6080154
-6.4218788 -5.4874148 -1.5263987
-21.635456 -5.3563747 -1.5831041
-20.21818 -5.3097687 -1.5980647
-19.270876 -5.3136702 -1.6262094
-18.017282 -5.3939195 -1.5298014
-17.752207 -5.3754687 -1.5086782
-15.184625 -5.2851629 -1.5160831
-15.036473 -5.2865658 -1.502908
-12.938991 -5.3353577 -1.5753255
-6.4796395 -5.3127003 -1.5140731
-6.4475088 -5.3886747 -1.5183604
-21.669046 -5.1829963 -1.5825127
-20.193176 -5.1678333 -1.5934823
-19.291183 -5.156621 -1.6244491
-16.693615 -5.1731691 -1.6483052
-16.529598 -5.1808033 -1.6337184
-16.288242 -5.2177014 -1.6130146
-16.054855 -5.1954374 -1.5913697
-15.811381 -5.1715016 -1.5687839
-15.595673 -5.1581907 -1.549021
-15.390569 -5.1439795 -1.5301995
-15.235427 -5.1987038 -1.5179653
-13.080652 -5.129837 -1.5814945
-13.023206 -5.2028441 -1.5785035
-6.6676908 -5.1418748 -1.5214864
-6.5438156 -5.1955576 -1.5097861
-21.664352 -4.9997082 -1.5792005
-20.270525 -5.0859594 -1.5976828
-19.355244 -5.0111594 -1.6264802
-19.320122 -5.0668869 -1.6248554
-16.745996 -5.0184636 -1.6487757
-13.702558 -5.0314417 -1.6431839
-13.528268 -5.0158043 -1.6241163
-13.363523 -5.0025983 -1.6061702
-13.208292 -4.9919167 -1.5893458
-13.115384 -5.0494738 -1.5818683
-6.9621487 -4.963726 -1.5451549
-6.8423839 -5.0089049 -1.532353
-6.6862245 -5.0405312 -1.5130014
-21.713955 -4.8716445 -1.5806201
-20.278688 -4.8852987 -1.5946279
-20.201233 -4.8666754 -1.5885183
-19.366951 -4.8845744 -1.6248554
-16.732361 -4.8714666 -1.6435997
-7.063097 -4.8538485 -1.5487276
-7.0144372 -4.8790274 -1.5440832
-21.686069 -4.7204971 -1.5763614
-20.282501 -4.7180619 -1.5919549
-19.361179 -4.7217093 -1.6211994
-16.765284 -4.738534 -1.6431292
-10.865512 -4.768188 -1.6452187
-10.738854 -4.7729988 -1.6293728
-7.734478 -4.6794863 -1.6340237
-7.565022 -4.6909065 -1.6088667
-7.418469 -4.6962571 -1.5868355
-7.2658591 -4.6974583 -1.5636135
-7.1122179 -4.7247667 -1.5430114
-7.0364227 -4.7707605 -1.5362234
-21.719784 -4.5870523 -1.5767163
-20.311756 -4.590488 -1.5919549
-19.380768 -4.5976534 -1.6203868
-16.840424 -4.5604477 -1.6454821
-16.794777 -4.6331282 -1.6431292
-7.8245893 -4.5842862 -1.6392337
-7.7984762 -4.6350489 -1.6398292
-21.694431 -4.4394827 -1.5728127
-20.281765 -4.449944 -1.5873728
-19.360704 -4.4646358 -1.6163248
-19.347527 -4.3656635 -1.6134813
-16.870878 -4.4267516 -1.6450114
-21.672972 -4.2933893 -1.5692638
-20.278643 -4.2826457 -1.5844451
-19.360395 -4.3082395 -1.6134813
-19.334888 -4.2388716 -1.6102316
-16.892538 -4.2626958 -1.6431292
-21.72401 -4.1618319 -1.5710382
-20.290161 -4.1207285 -1.5827904
-19.351391 -4.1152334 -1.6094192
-19.346411 -4.1142211 -1.609013
-16.896515 -4.1228189 -1.640306
-21.672598 -3.9757338 -1.5650054
-20.267082 -3.9817803 -1.5789719
-19.339146 -3.9541512 -1.6057634
-16.915422 -3.9869261 -1.6390513
-21.771969 -3.8174834 -1.5699736
-20.276461 -3.8184593 -1.5773172
-19.373386 -3.8344946 -1.6065757
-16.93606 -3.8236768 -1.6374828
-21.692253 -3.6631713 -1.5625213
-20.287872 -3.6558928 -1.575917
-19.378386 -3.6775656 -1.6045446
-16.95672 -3.6607251 -1.6360712
-16.942211 -3.6575699 -1.6346594
-21.690224 -3.5228291 -1.5607469
-20.310442 -3.5283489 -1.575917
-19.406708 -3.5252781 -1.6045446
-16.965523 -3.5233698 -1.6341889
-21.657726 -3.3779941 -1.5568433
-20.329285 -3.3673677 -1.5752805
-19.420664 -3.3704593 -1.6034614
-16.987751 -3.3890505 -1.6337185
-21.693325 -3.2440395 -1.5579078
-20.304258 -3.1995988 -1.5713348
-19.410522 -3.2118623 -1.6004825
-16.993046 -3.2228615 -1.6312089
-21.69846 -3.1056216 -1.5568433
-20.353004 -3.0799508 -1.5736258
-19.451521 -3.0618823 -1.6018366
-17.01922 -3.0629566 -1.6308953
-21.674368 -2.9285936 -1.5534128
-20.371756 -2.9181101 -1.5732441
-19.45857 -2.9066277 -1.6004825
-17.032976 -2.927501 -1.6299541
-5.2668681 -2.8535349 -1.5533431
-5.219172 -2.8701704 -1.5445027
-20.340065 -2.7483153 -1.5690436
-19.48632 -2.7856855 -1.6012949
-17.045584 -2.7920189 -1.6290131
-5.51266 -2.8440442 -1.6089096
-5.2824411 -2.8091035 -1.5514486
-21.701254 -2.5858369 -1.5522298
-20.376255 -2.62656 -1.5705711
-19.484503 -2.6294882 -1.5993992
-17.04162 -2.6267087 -1.6261898
-21.737949 -2.4863672 -1.5540042
-20.36783 -2.4936974 -1.5686618
-19.488121 -2.4742532 -1.5980452
-17.105089 -2.4716763 -1.6299541
-17.080368 -2.4681411 -1.6276014
-20.302307 -2.3257432 -1.5621703
-19.406233 -2.2816963 -1.5895147
-17.074631 -2.330538 -1.6252487
-21.7379 -2.2081008 -1.5518749
-20.379511 -2.1725855 -1.5667526
-19.48457 -2.1668682 -1.5947955
-17.06605 -2.1929159 -1.6227392
-21.640211 -2.0284836 -1.5437129
-20.362995 -2.0415137 -1.5644614
-19.473381 -2.0383878 -1.5927644
-17.072771 -2.0304461 -1.6214844
-20.360155 -1.8798617 -1.5630612
-19.47056 -1.883643 -1.5912749
-17.105038 -1.9253553 -1.6233666
-17.074306 -1.840445 -1.6196022
-23.736288 -1.7541556 -1.5199275
-21.689293 -1.6898774 -1.5451324
-20.347839 -1.7176353 -1.5610245
-19.433201 -1.7294848 -1.5870774
-17.081594 -1.7056435 -1.6189747
-21.687038 -1.5869339 -1.5444226
-20.353254 -1.5894353 -1.5606428
-19.434822 -1.5725366 -1.5861295
-17.071369 -1.5692984 -1.6167791
-21.656773 -1.4479587 -1.5415835
-20.336889 -1.4275374 -1.558479
-19.458214 -1.4206643 -1.5870774
-17.066599 -1.4337516 -1.6152105
-21.627604 -1.2754682 -1.5387446
-20.325954 -1.2664013 -1.5568242
-19.437094 -1.2680053 -1.5845047
-17.072735 -1.272357 -1.614583
-21.646961 -1.1060331 -1.5394542
-20.343468 -1.1392062 -1.557588
-19.458035 -1.1171129 -1.5854526
-17.047541 -1.1090347 -1.6111323
-20.320208 -0.97786134 -1.5551696
-19.454712 -0.99434531 -1.5846403
-17.045822 -0.97450519 -1.6101913
-23.746931 -0.81953067 -1.517374
-21.650492 -0.79958314 -1.5387446
-19.440359 -0.83944684 -1.5828799
-17.052916 -0.84063387 -1.6101913
-21.658974 -0.69774961 -1.5390995
-20.347565 -0.72304058 -1.5564424
-19.457972 -0.6882599 -1.5838277
-17.030237 -0.67865849 -1.6073681
-21.665407 -0.52752727 -1.5392176
-20.349276 -0.49913895 -1.5560606
-19.461075 -0.53537935 -1.5836922
-17.035879 -0.51813543 -1.6073681
-21.621822 -0.39063823 -1.5359055
-20.356995 -0.37138546 -1.5564424
-19.451433 -0.38226014 -1.5826091
-17.033369 -0.35742354 -1.6067408
-20.299524 -0.20731814 -1.5518601
-19.447151 -0.22940104 -1.5820675
-17.037344 -0.22361273 -1.6068976
-20.350428 -0.019580314 -1.5556786
-19.460022 -0.076708734 -1.5830153
-17.040201 -0.08884982 -1.6070544
-19.444761 0.13716318 -1.5817966
-17.030333 0.070732586 -1.6061134
-23.700478 0.18758793 -1.513544
-23.639898 0.26139319 -1.5097138
-21.663321 0.28923702 -1.5387446
-17.022272 0.23114717 -1.6054859
-21.62241 0.35664123 -1.5359055
-21.591265 0.42398047 -1.5337762
-20.296095 0.42686832 -1.5518601
-19.421572 0.38109982 -1.5801717
-17.022657 0.39161965 -1.6057997
-20.278881 0.52212602 -1.5507145
-19.398031 0.53306842 -1.578547
-17.000847 0.52477479 -1.6040742
-21.660046 0.66368318 -1.5390995
-20.33783 0.71552956 -1.5556787
-19.418074 0.68633509 -1.580578
-17.004457 0.65856022 -1.6048585
-21.675385 0.80052936 -1.540519
-20.35153 0.87606955 -1.5572062
-19.456966 0.84074092 -1.584234
-16.923304 0.84191877 -1.5979574
-21.696316 0.90363073 -1.5422933
-20.327232 0.97100806 -1.5556786
-19.436367 0.96223992 -1.5830153
-16.995705 0.97936398 -1.6054859
-21.792809 1.1821303 -1.5501007
-20.362078 1.1330489 -1.5589881
-19.466316 1.1170141 -1.5861295
-16.729168 1.096024 -1.581018
-21.794909 1.3196366 -1.5508105
-20.401064 1.2638309 -1.5625521
-20.396994 1.3279138 -1.5625521
-19.483505 1.2716129 -1.5882961
-16.991007 1.2754841 -1.6068976
-20.425297 1.4264748 -1.5652251
-19.542521 1.4297214 -1.5939831
-19.497692 1.4264476 -1.5903273
-17.011971 1.4099864 -1.6098777
-20.425877 1.5554931 -1.5659888
-19.545567 1.5843661 -1.5952017
-17.030781 1.5753341 -1.6130146
-20.48419 1.7218803 -1.571462
-19.560051 1.7093108 -1.5972328
-17.038198 1.7390513 -1.6152105
-20.496206 1.8526524 -1.5732441
-19.612507 1.9003761 -1.6029198
-17.045647 1.8737074 -1.6172495
-19.623194 1.9947705 -1.6045446
-17.061859 2.0097079 -1.6202296
-20.510979 2.1141555 -1.5762988
-17.074703 2.177582 -1.6233665
-19.671164 2.3750548 -1.6118566
-17.104212 2.3711991 -1.6285424
-17.080479 2.287446 -1.6252488
-22.010517 2.5174475 -1.5735224
-20.526869 2.5076401 -1.5808811
-19.663603 2.4368443 -1.6118566
-19.645964 2.4973452 -1.611044
-17.118752 2.4813905 -1.6313658
-21.953808 2.6158376 -1.5703285
-20.579933 2.6454692 -1.5862272
-20.538677 2.5745943 -1.5824085
-19.728605 2.633975 -1.6191683
-17.122843 2.6225183 -1.6337185
-21.995712 2.7260003 -1.5742322
-20.636398 2.751615 -1.591573
-19.727089 2.7916131 -1.6207931
-17.113745 2.7864406 -1.6352868
-20.630554 2.9159997 -1.592846
-19.778175 2.9257348 -1.6264802
-17.124336 2.9248593 -1.6384239
-19.759567 3.1135767 -1.6272926
-17.120138 3.0642364 -1.6403061
-19.764202 3.2416995 -1.6293237
-17.13941 3.2346895 -1.6450114
-19.758188 3.3682947 -1.6305423
-17.128166 3.3720748 -1.6464231
-17.097469 3.4497981 -1.6450114
-20.728605 3.5972383 -1.6083747
-20.681391 3.4887488 -1.6034106
-19.770279 3.5304699 -1.633792
-17.115808 3.5094872 -1.6478348
-22.220341 3.6804454 -1.5997833
-20.691441 3.6931736 -1.6068473
-20.726994 3.8321724 -1.6114296
-19.753828 3.7842135 -1.6362293
19.169844 3.8359723 -1.5903271
19.290447 3.7656431 -1.5988578
-20.79418 4.0137639 -1.6190666
-19.766138 3.9800658 -1.6402913
19.147215 3.9881172 -1.5910043
-22.250937 4.1941938 -1.6083003
-22.146305 4.1024799 -1.5997833
-20.784792 4.113627 -1.6198304
-19.739128 4.1361818 -1.6406977
33.650158 4.1357555 -1.5732701
-22.204563 4.3301005 -1.6068808
-22.198463 4.2565689 -1.6054612
33.531242 4.2816844 -1.5686291
-22.267406 4.4493766 -1.6129137
-22.237097 4.6231852 -1.6132686
-20.735443 4.5457373 -1.6228852
33.662876 4.5076585 -1.5760546
-22.238596 4.7370071 -1.6150429
-20.747681 4.7195396 -1.6267037
-22.266855 4.8894582 -1.6193016
-20.790424 4.8668809 -1.6324317
-22.250278 5.0326052 -1.6203661
-20.793369 5.0055466 -1.6351047
-28.356188 5.2076654 -1.5088456
-22.30171 5.1876087 -1.626399
-20.866407 5.1272678 -1.6427418
-20.840521 5.1903882 -1.641978
-22.287609 5.334219 -1.6278186
-20.862782 5.2655954 -1.6450328
-20.846134 5.3311148 -1.6450328
33.498577 5.3517232 -1.5741981
34.874371 5.3471117 -1.6373147
-26.305748 5.4518447 -1.5514262
-24.618189 5.4679389 -1.6105741
-22.316147 5.4915404 -1.632432
-20.866949 5.4102221 -1.6480877
-20.827694 5.5010414 -1.6469421
33.481594 5.4569492 -1.5741981
-24.700096 5.6491852 -1.6182345
-22.290871 5.6341066 -1.6331418
-20.825638 5.6056099 -1.6488514
33.58453 5.6905732 -1.5806954
-28.301924 5.7511573 -1.5114623
-24.687759 5.7688627 -1.619192
-22.317774 5.7903824 -1.637755
-26.455555 5.9177818 -1.565572
-24.714083 5.9390774 -1.6233413
-22.252058 5.9227085 -1.6356258
-26.456768 6.0928431 -1.5678816
-24.608313 6.0364647 -1.6182345
-24.531116 6.0993056 -1.6144043
-22.300989 6.0861244 -1.6420137
-20.705851 6.0686107 -1.6496152
-26.500681 6.2345943 -1.5722119
-24.415056 6.1519828 -1.6080207
-24.240889 6.1891851 -1.5978069
-23.970108 6.2003908 -1.5812097
-23.738119 6.2200599 -1.5671659
-23.506243 6.2383389 -1.553122
-23.303402 6.2629809 -1.5409932
-23.04286 6.2707071 -1.5250343
-22.859478 6.2980404 -1.5141823
-22.257343 6.262393 -1.6423684
-22.171192 6.1630583 -1.6345612
-26.563187 6.381577 -1.577697
-22.637697 6.3135757 -1.5007769
-22.199188 6.3213592 -1.6395296
-22.016273 6.3441324 -1.6274637
-21.814283 6.3602304 -1.6139784
-21.621981 6.3779445 -1.6012028
-21.439341 6.3973703 -1.589137
-21.237696 6.4099436 -1.5756516
-21.074347 6.4329648 -1.5650054
-20.882471 6.4461937 -1.5522298
-22.566463 6.527812 -1.5001385
-20.728809 6.4701719 -1.5422933
-20.575205 6.4932427 -1.5323569
-20.48027 6.5144634 -1.5847104
-20.318935 6.5139613 -1.631286
-20.156096 6.5316482 -1.6198304
-19.993349 6.5483708 -1.6083747
-19.831842 6.5606771 -1.5969191
-19.650379 6.5691943 -1.583936
-19.506845 6.5893989 -1.5740076
-20.452385 6.631556 -1.5270337
-20.36882 6.7107134 -1.5231299
-19.33392 6.6024804 -1.5617883
-19.108503 6.6261144 -1.5790948
-18.960669 6.6863856 -1.5697031
-18.754477 6.6356053 -1.618356
-18.611536 6.6508536 -1.6077943
-18.468685 6.6652756 -1.5972328
-18.316566 6.6754451 -1.5858588
-18.192625 6.6950645 -1.5769222
-18.068741 6.7139664 -1.5679854
-17.982243 6.7461758 -1.5622984
-20.37479 6.8192635 -1.525969
-18.926208 6.830565 -1.5381134
-17.96767 6.8410473 -1.5639234
-28.501745 6.9198198 -1.5350136
-20.304836 6.9736671 -1.524786
-18.853235 6.9720707 -1.5365858
-17.887161 6.9393902 -1.5606735
-17.846235 7.0168452 -1.5598611
-16.064386 6.920908 -1.6497167
-15.951246 6.931694 -1.6403061
-15.838197 6.941833 -1.6308953
-15.65971 6.9517264 -1.6158378
-15.490543 6.9643335 -1.6017218
-15.386971 6.9759903 -1.5932519
-15.249859 7.0006466 -1.5824294
-20.218124 7.1218748 -1.5224202
-18.797932 7.1199522 -1.5365859
-17.780577 7.1190877 -1.5579654
-15.173983 7.0816207 -1.5791357
-15.079718 7.153348 -1.5739597
-14.950341 7.1817656 -1.5640783
-14.847049 7.1896749 -1.5556085
-20.123987 7.2669129 -1.5195812
-18.762119 7.2415276 -1.5373497
-18.709246 7.3225875 -1.5358222
-17.719742 7.2254848 -1.5566114
-17.671013 7.3047352 -1.5553927
-14.795983 7.2790513 -1.5549812
-20.075689 7.4282169 -1.520291
-18.625761 7.4251976 -1.5327674
-17.595589 7.4376893 -1.5539032
-14.803042 7.4252777 -1.5617256
-19.986618 7.5383787 -1.517097
-18.527273 7.5890689 -1.5304762
-17.534626 7.5384951 -1.5525492
-14.809377 7.5779109 -1.5687838
-18.471737 7.7362814 -1.530858
-14.811264 7.7261562 -1.5753713
-8.8817568 7.6953831 -1.6293728
-8.7751799 7.7245288 -1.6208758
-8.6276531 7.7660699 -1.6093932
-8.4564705 7.782536 -1.5933176
-19.855791 7.8494363 -1.5163872
-19.786884 7.9282236 -1.5139033
-18.384398 7.8699875 -1.5286942
-14.756798 7.8771992 -1.5774889
-8.3097601 7.818984 -1.5818353
-8.1820831 7.8456206 -1.5715008
-8.0195723 7.8608551 -1.5567573
-7.8652363 7.9067779 -1.5460097
-7.7114234 7.9007473 -1.5303935
-7.6303596 7.9425125 -1.526719
-19.776302 8.0343494 -1.5160323
-18.319414 7.9787316 -1.5274215
-18.268921 8.0936775 -1.5274215
-14.701829 7.9951687 -1.5781947
-14.653839 8.0621128 -1.5772536
-12.219766 8.0750103 -1.648792
-7.5550833 8.0140762 -1.526719
-19.730042 8.160347 -1.5163872
-18.243402 8.1510334 -1.5274215
-14.587148 8.1753054 -1.5769399
-12.137017 8.2165642 -1.6499138
-7.5372176 8.17521 -1.5414165
-31.404943 8.3259678 -1.507601
-19.682253 8.2878151 -1.5167421
-19.643003 8.3804846 -1.5167421
-14.512813 8.3132362 -1.5772537
-12.098178 8.2736769 -1.6499138
-7.5125642 8.3050318 -1.5524398
-7.4954996 8.3914499 -1.5597887
-2.7512693 8.3550739 -1.5898126
-31.55274 8.527318 -1.5166509
-19.594109 8.4690037 -1.5160325
-14.430461 8.4488068 -1.5769399
-14.388553 8.546113 -1.5781947
-11.949286 8.4785566 -1.6493529
-7.4215217 8.4673367 -1.560891
-2.7168047 8.428422 -1.6005305
-0.62810808 8.517477 -1.5433687
-0.51895523 8.5164967 -1.5418801
-31.602875 8.6474934 -1.5203636
-19.536079 8.6266289 -1.5167421
-14.325985 8.6312027 -1.5772537
-11.864893 8.5879126 -1.648792
-11.806699 8.6593456 -1.6482313
-7.3553863 8.5537577 -1.5639224
-7.3270965 8.6299925 -1.569434
-0.81892836 8.6810637 -1.5758795
-0.70534539 8.6397524 -1.5665907
-0.37437955 8.5855045 -1.5530149
-0.22681755 8.6326227 -1.5606362
-0.076447174 8.6385832 -1.5612317
0.033247802 8.6585922 -1.5648044
-31.546673 8.7387314 -1.5189713
-19.458672 8.775713 -1.5160323
-14.271528 8.7210569 -1.5772536
-14.230255 8.7882023 -1.5772536
-11.752048 8.7333708 -1.6482313
-11.685043 8.7980614 -1.6465487
-7.3099403 8.7480717 -1.5804572
-0.95329744 8.7643652 -1.5933852
0.11584117 8.7300406 -1.5779039
0.1730946 8.8242531 -1.5951715
-14.146732 8.921876 -1.5772536
-11.609039 8.9143171 -1.6476704
-7.3543601 8.9428406 -1.6052595
-7.3255482 8.8510475 -1.5928583
-1.1056247 8.9844484 -1.6362566
-1.0355127 8.8739691 -1.614821
0.21850294 8.9757881 -1.6228592
-14.049544 9.0803499 -1.5775675
-11.504674 9.0686855 -1.6490724
-7.3575816 9.0042353 -1.6121491
-7.3163242 9.0716944 -1.6158234
-1.1670541 9.0163927 -1.6434019
0.27874675 9.097167 -1.6451881
-17.612103 9.2034206 -1.5190206
-16.542713 9.2165689 -1.5403628
-16.499132 9.2944069 -1.5403628
-13.974509 9.1894379 -1.5772536
-13.947662 9.266201 -1.5791357
-11.416812 9.1752014 -1.648792
-11.362795 9.2498865 -1.6493529
-7.2996354 9.2286882 -1.6314398
-17.579556 9.3294163 -1.5213118
-17.509062 9.398016 -1.5190206
-16.476776 9.3843861 -1.5423939
-13.873125 9.3727903 -1.5789006
-11.288498 9.3377676 -1.649166
-11.197491 9.4416456 -1.648792
-7.3025866 9.3523893 -1.6452187
-17.452532 9.5093946 -1.5192752
-16.395346 9.5093174 -1.5417169
-13.756846 9.5179701 -1.5775675
-11.137904 9.5117903 -1.6487919
-11.070449 9.5751047 -1.6476704
-17.365038 9.6750736 -1.5195297
-16.28216 9.6498137 -1.5395504
-13.683043 9.6267109 -1.5777242
-13.622286 9.7124939 -1.5777242
-11.012524 9.6466236 -1.6480442
-18.92532 9.7869081 -1.5131935
-18.792814 9.8685045 -1.5075154
-17.291437 9.8128281 -1.5197843
-17.227726 9.8842907 -1.5182568
-16.214405 9.7826157 -1.5403628
-16.168154 9.8589125 -1.5403628
-13.546899 9.820138 -1.577881
-10.874985 9.8038301 -1.6482311
-10.788005 9.8775311 -1.6465487
-18.647245 9.9797316 -1.5020739
-17.176628 9.9628429 -1.517875
-17.090803 10.020995 -1.5144384
-16.114302 9.9655342 -1.5411752
-13.443862 9.9745703 -1.5786653
-10.708735 9.9632807 -1.6465487
-10.615334 10.033962 -1.6443056
-17.036026 10.133228 -1.515202
-16.068317 10.077198 -1.5428002
-15.978562 10.126078 -1.538738
-13.36829 10.084075 -1.5791357
-13.320604 10.146948 -1.5791357
-10.570625 10.088219 -1.6448665
-16.8792 10.22024 -1.5083287
-16.779827 10.268476 -1.5037463
-15.918794 10.229002 -1.5391442
-15.811588 10.302942 -1.5350821
-15.707855 10.343121 -1.5298014
-13.240474 10.251233 -1.5791355
-13.168012 10.328115 -1.5781947
-15.625453 10.359357 -1.5249268
-15.53507 10.405079 -1.5208647
-15.37458 10.438066 -1.5115217
-13.119187 10.390028 -1.5781946
-12.959004 10.431037 -1.5687838
-15.329317 10.51328 -1.5119278
-15.230474 10.551267 -1.5070534
-15.123416 10.582967 -1.5013664
-12.853012 10.545679 -1.5678428
-12.675448 10.603946 -1.558432
-12.521294 10.678459 -1.5518442
-12.384335 10.73093 -1.5452567
-12.241816 10.742888 -1.5358459
-12.185246 10.829504 -1.5372576
-12.047083 10.879189 -1.53067
-11.927055 10.88544 -1.5226707
-9.5051413 10.929378 -1.6304722
-11.868331 10.993624 -1.525494
-11.74826 10.983787 -1.5165536
-11.613732 11.032138 -1.5104367
-11.490892 11.088511 -1.5057313
-9.3808336 10.992752 -1.6267333
-9.2258377 11.019669 -1.6177603
-9.1204605 11.070629 -1.6145824
-9.0382118 11.112274 -1.6123393
-8.9112968 11.169761 -1.6084135
-8.8295145 11.247268 -1.6095351
-8.7586508 11.30248 -1.6095352
-8.6435566 11.340841 -1.6050485
-8.530324 11.339333 -1.5971973
-8.4525671 11.459122 -1.6028053
-8.3238277 11.510169 -1.5988797
-8.295517 11.585652 -1.6039269
-8.1765614 11.612124 -1.5985993
-8.0574436 11.674052 -1.5966364
-7.982914 11.725142 -1.5966364
-7.8695903 11.798432 -1.596356
-7.7019916 11.82663 -1.5885981
-7.5882926 11.937157 -1.5921499
-7.2740722 12.02107 -1.5814945
-6.9722991 12.207079 -1.5823356
-6.862886 12.237704 -1.5792512
-6.829227 12.313345 -1.5848594
-6.6904774 12.338361 -1.5798119
-6.5611796 12.37957 -1.5770079
-6.494297 12.489469 -1.5844855
-6.3658051 12.529446 -1.5818683
-6.301095 12.652867 -1.5910282
-6.25243 12.7047 -1.5938324
-6.2467546 12.845734 -1.6078527
-6.1348619 12.816973 -1.5994405
-6.0557661 12.966954 -1.6109371
-5.9444561 12.993873 -1.6084136
4.0720673 13.021297 -1.5355077
-5.9033542 13.121585 -1.6196297
-5.8289008 13.176614 -1.621873
4.0018096 13.084631 -1.5399942
4.1302252 13.055088 -1.5411159
-5.806428 13.295016 -1.6330893
-5.7521715 13.399722 -1.6415014
-4.3565469 13.640038 -1.6117784
-4.0945349 13.627592 -1.6016837
-3.9794283 13.640965 -1.5994405
-3.6717 13.613797 -1.5871027
-3.5161173 13.579449 -1.5788773
-4.8647132 13.78896 -1.645988
-4.7323899 13.759609 -1.6379496
-4.6241093 13.730039 -1.630846
-4.4085226 13.654656 -1.6151433
-4.2727561 13.673409 -1.6125261
-4.1790004 13.674696 -1.6095351
-3.9862168 13.659609 -1.6016836
-3.8258822 13.671835 -1.5980384
-3.5671163 13.651863 -1.5882242
-3.3771844 13.725578 -1.5910282
-3.2728422 13.766243 -1.5927107
-3.2026503 13.857495 -1.6009359
-3.0951781 13.888713 -1.6016837
-3.0246205 13.985592 -1.6106567
-2.9254 14.060788 -1.6166388
-2.8300183 14.056693 -1.6140215
-2.6706283 14.062542 -1.6112175
-2.4656138 14.064594 -1.6072918
-2.380492 14.099454 -1.6095351
-2.1804008 13.997658 -1.5945801
-2.0248785 14.006733 -1.5929911
-1.8690296 14.032598 -1.5934585
-1.7854333 14.086934 -1.5983189
-2.7742352 14.123493 -1.6201906
-2.5947356 14.147467 -1.619069
-2.3131454 14.120711 -1.6106567
-1.706284 14.176765 -1.6072918
-1.5781106 14.24157 -1.6129
-1.5879282 14.330532 -1.6229945
-1.4753314 14.342544 -1.6229945
-1.3972459 14.490128 -1.6386974
-1.3022316 14.469047 -1.6353326
-2.5057566 15.730456 -1.501967
-2.4384429 15.786345 -1.5062019
-2.3451567 15.860857 -1.5118483
-2.1659393 15.851095 -1.5085545
-2.2810466 15.945655 -1.5189064
-2.1808083 15.959673 -1.5189064
-2.0923188 16.041798 -1.525494
-2.0004921 16.150431 -1.5345912
-1.8877485 16.287643 -1.5461979
5.3658195 16.428673 -1.6299541
5.5229506 16.366009 -1.6290131
-1.8352953 16.51405 -1.5669016
-1.7352405 16.56151 -1.5703522
-1.5847465 16.666595 -1.5788221
-1.4558163 16.701702 -1.5810179
27.644453 17.772478 -1.5250046
27.986403 17.868332 -1.5407836
28.24486 17.908712 -1.5519218
-4.0868359 18.051506 -1.5054284
-3.9753513 18.086531 -1.5062408
-3.6778164 18.098581 -1.5021788
-3.5678639 18.140894 -1.5038036
-3.8143272 18.178881 -1.5108447
-3.6404552 18.207787 -1.510303
-3.4982777 18.240688 -1.5107093
-3.1751387 18.274435 -1.5086782
-3.3671596 18.334558 -1.516261
-3.2565529 18.381582 -1.5184274
-3.0689909 18.346397 -1.5130111
-2.9784982 18.49935 -1.5241144
-2.7483847 18.575235 -1.527364
-2.9358742 18.607071 -1.5322385
-2.7628069 18.673763 -1.5354881
-2.6422992 18.69129 -1.5354882
-2.6026261 18.837727 -1.5468622
-2.4237008 18.851534 -1.5460498
-2.3244636 18.778641 -1.5391442
-2.5567381 18.944588 -1.5549865
-2.4998002 18.972292 -1.5566114
-4.5405359 19.110514 -1.5014553
-4.4827518 19.134392 -1.502219
-2.2741203 19.11108 -1.5655482
-4.1463871 19.332476 -1.5113834
-2.2552505 19.474567 -1.5947955
-2.1628833 19.480003 -1.5943892
-4.091043 19.522551 -1.5247483
-3.987112 19.640705 -1.5320036
-2.0171959 19.590775 -1.6021074
-1.8872461 19.543709 -1.5972328
-3.9142919 19.777359 -1.5411682
-3.8445256 19.750408 -1.5381134
-3.6902173 19.784866 -1.5384952
-3.5303164 19.788729 -1.5365859
-1.8486886 19.757622 -1.6142937
-1.7529266 19.756315 -1.6134813
-3.7899451 19.801563 -1.5411682
-3.541573 19.852453 -1.54155
-3.3957281 19.938683 -1.5461323
0.40881285 19.939402 -1.622418
0.50256395 19.883402 -1.58558
-3.2974181 19.95015 -1.5457505
-2.9204147 20.005386 -1.545496
-2.8032906 20.085964 -1.5503327
0.34634772 19.950554 -1.6232305
-3.0824943 20.22658 -1.5640795
-2.7590256 20.232985 -1.5610245
-2.6210811 20.165752 -1.5545331
-2.3620558 20.182775 -1.5533876
0.28698218 20.180759 -1.6419163
0.72886109 20.119768 -1.6378542
0.8440572 20.139204 -1.5902748
1.0024221 20.136944 -1.5907543
-2.6331229 20.259808 -1.5617883
-2.473906 20.294907 -1.5629339
0.22448826 20.261292 -1.6484157
-2.2993188 20.450888 -1.5732441
-5.7519922 20.608263 -1.5195812
-2.189271 20.673531 -1.589282
-5.7376108 20.808931 -1.5330666
-5.5335569 20.83316 -1.5309373
-2.0687099 20.781136 -1.5965372
-5.6800776 20.855724 -1.5351957
-1.9862994 20.954462 -1.6091385
-1.8843561 20.968853 -1.6095203
-5.5529728 21.1891 -1.5557786
-5.7622561 21.422501 -1.5756516
-5.5488544 21.447859 -1.5735224
-9.6444435 21.453432 -1.5020535
-9.5218315 21.551697 -1.5046068
-5.2931724 21.574013 -1.577781
-5.1740294 21.525934 -1.5724578
-5.0305738 21.524059 -1.5699737
-4.2269526 21.594587 -1.5628762
-9.3617411 21.741377 -1.5116289
-9.2620344 21.69726 -1.5065221
-5.5029316 21.691277 -1.5894918
-5.3753686 21.615356 -1.5820395
-4.9625525 21.693386 -1.5806199
-4.6563444 21.618338 -1.5706834
-4.5904784 21.642616 -1.5713931
-4.3942118 21.724028 -1.5742322
-4.3278923 21.747505 -1.5749419
-4.1741824 21.686119 -1.5685543
-4.8777218 21.794369 -1.586298
-4.7749443 21.817146 -1.5862981
-4.5568609 21.802597 -1.5820395
-4.1357222 21.855936 -1.5799103
-3.8113513 21.848988 -1.5752968
-3.6681457 21.838085 -1.5728126
-3.2200949 21.898581 -1.5721029
-3.041811 21.878712 -1.568909
-4.5325851 22.031746 -1.5976541
-4.0960336 22.046051 -1.5926857
-4.0249648 22.049 -1.591976
-3.3126001 22.046179 -1.583459
-3.1598113 21.967827 -1.5763614
-2.9120955 21.956728 -1.5731676
-3.9574399 22.07135 -1.5926857
-3.3969922 22.134254 -1.5905565
-2.8333538 22.16316 -1.5870076
-2.6423039 22.076218 -1.5792005
-2.5359344 22.068638 -1.577781
-2.297246 22.134846 -1.5806199
-2.1561456 22.149033 -1.5806201
-2.7660062 22.221926 -1.5905565
-2.4123113 22.222965 -1.5877174
-2.0673413 22.347864 -1.5941052
-2.5131478 22.492842 -1.6075906
-2.0095525 22.493343 -1.6040419
1.6200467 22.464743 -1.5997833
1.7258592 22.456833 -1.5997833
1.833321 22.468359 -1.6012028
3.7760642 22.457201 -1.6175271
1.5544286 22.59936 -1.6090101
1.9139947 22.58176 -1.6097199
3.4318492 22.572912 -1.6217858
3.5073323 22.591589 -1.6239148
3.7249525 22.587059 -1.6260442
0.23613983 22.751247 -1.6161077
0.34246302 22.690067 -1.6118491
1.4938641 22.763386 -1.6203662
2.0730243 22.758028 -1.6232051
2.4950573 22.655424 -1.6189467
2.6137781 22.712292 -1.623915
3.6858044 22.795588 -1.6402391
3.9696543 22.734299 -1.6392928
1.3555334 22.85198 -1.6260442
2.014601 22.913477 -1.6338514
2.3814731 22.948458 -1.6388198
2.4461331 22.871433 -1.6338514
3.3624759 22.84045 -1.6398844
1.4391164 23.036762 -1.6395296
2.318336 23.045151 -1.6452075
2.8297613 22.998003 -1.6459172
3.0530121 22.989557 -1.6473367
4.3054862 23.154636 -1.5039686
3.5036492 23.350008 -1.5077987
3.4548867 23.528757 -1.5186508
1.5826 23.618319 -1.5116289
3.0517671 23.61459 -1.5205659
3.2087383 23.659237 -1.5247152
3.711436 23.691704 -1.531418
2.9649553 23.82682 -1.5333329
3.4107013 23.746946 -1.5320563
1.5280371 23.931917 -1.531418
3.3790331 24.063915 -1.5518453
10.572057 24.131411 -1.5214022
10.755987 24.137459 -1.5260214
10.176248 24.257677 -1.5190927
10.286549 24.200226 -1.5185153
10.452263 24.167191 -1.5205362
10.672033 24.152866 -1.5248666
10.902494 24.15925 -1.5306404
11.061934 24.196514 -1.5364141
10.24572 24.639786 -1.5410331
10.210131 24.773373 -1.5473845
10.087404 24.931328 -1.5531583
7.1816797 26.508167 -1.5860691
4.9154859 29.542744 -1.5674618
5.01161 29.546848 -1.5685086
5.1576767 29.562212 -1.5706019
5.3495445 29.563616 -1.5724337
5.4969902 29.582302 -1.5747889
5.6121645 29.682634 -1.5810692
5.7129464 29.704082 -1.5831627
16.575764 31.236242 -1.6410275
20.323023 34.135517 -1.6009599
20.482359 34.145058 -1.6045874
20.620518 34.131863 -1.6070058
20.774372 34.143745 -1.6106334
17.356333 34.632339 -1.5610569
17.474068 34.595474 -1.5618629
17.60985 34.593838 -1.5642812
17.723 34.547241 -1.5646844
17.872728 34.571281 -1.5683119
17.254745 34.716541 -1.562266
29.626806 35.529869 -1.6141018
29.75757 35.459572 -1.6151487
29.939762 35.449894 -1.6189877
29.5278 35.638157 -1.6147997
29.517344 35.854179 -1.6203836
9.3771887 36.054806 -1.5012021
9.5584717 36.053738 -1.5030161
9.6846333 36.071785 -1.5050313
9.8136406 36.09903 -1.5074496
10.128312 36.12093 -1.5116818
10.311148 36.105591 -1.5130926
10.435611 36.111416 -1.5147047
10.565838 36.135994 -1.5171231
10.699135 36.169697 -1.5199445
10.943532 36.159145 -1.5223629
11.074628 36.181908 -1.5247812
11.197097 36.175579 -1.5259906
11.328583 36.197441 -1.5284088
11.457304 36.209305 -1.5304241
11.583188 36.211197 -1.5320364
11.780178 36.205338 -1.5342534
11.974179 36.210102 -1.5368731
12.113197 36.248127 -1.5400976
12.239791 36.247765 -1.5417099
12.363411 36.258575 -1.5437253
12.490267 36.257347 -1.5453374
12.623802 36.274551 -1.5477557
12.825909 36.283031 -1.5507789
13.022035 36.292778 -1.5538018
39.020924 36.275673 -1.5242877
39.215458 36.22752 -1.5274359
39.410095 36.178482 -1.5305841
44.211964 36.176559 -1.6344738
13.166607 36.336243 -1.5574293
13.290987 36.322853 -1.5586385
13.425798 36.337158 -1.5610569
13.553867 36.332245 -1.5626692
13.69258 36.354946 -1.5654906
13.828018 36.36779 -1.5679088
14.092344 36.373363 -1.5719395
14.241982 36.400879 -1.575164
14.356282 36.355953 -1.575164
14.500005 36.384933 -1.5783885
14.640323 36.404099 -1.5812099
14.762124 36.376446 -1.5820161
14.912966 36.401264 -1.5852405
44.090378 36.308914 -1.6341875
38.979774 36.466366 -1.5271497
44.029972 36.491894 -1.6361909
39.141598 36.848995 -1.5380251
44.107025 36.790092 -1.6433458
22.668098 37.796364 -1.5376717
23.804064 37.766537 -1.5575645
23.901163 37.657822 -1.5561686
23.722408 37.90044 -1.5600076
22.49123 38.041267 -1.5418597
22.381735 38.128971 -1.5425578
18.992775 38.81575 -1.5076582
19.462051 41.427998 -1.597001
19.63489 41.456974 -1.6004909
19.808098 41.485264 -1.6039808
20.003359 41.557903 -1.6092159
28.524975 45.848553 -1.544894
28.380777 45.937954 -1.544894
49.854595 50.131172 -1.6405224
34.969372 58.402779 -1.5794785
47.166645 72.647827 -1.5112038
47.120461 73.106392 -1.5174867
47.077141 73.573875 -1.5239441
47.060253 74.058975 -1.5309252
46.992764 74.468582 -1.5363353
44.330013 -44.14735 -1.4515884
44.447166 -43.986771 -1.4508921
42.041142 -40.828762 -1.3596746
34.540108 -37.467411 -1.4578899
47.016891 -37.280876 -1.3921694
34.474411 -37.174194 -1.4504488
34.454632 -36.91954 -1.4447248
34.57729 -36.818401 -1.445011
37.234879 -36.767319 -1.4970989
34.610401 -36.622414 -1.4415766
34.677067 -36.462795 -1.4395733
35.106556 -36.453003 -1.447873
37.23605 -36.538139 -1.4925197
37.522411 -36.58847 -1.4993886
34.846733 -36.411449 -1.4418628
37.457714 -36.296501 -1.4922336
37.31955 -35.935966 -1.4822166
37.096054 -34.396965 -1.4473006
37.049564 -34.138008 -1.4412905
36.869114 -33.758171 -1.4301287
37.221371 -33.653233 -1.4355665
37.535099 -33.72319 -1.44358
36.649685 -33.346176 -1.417536
37.677708 -33.00515 -1.4329907
37.609631 -32.748795 -1.4266944
36.669525 -32.531403 -1.4023676
36.657215 -32.303879 -1.3977884
36.606697 -31.662596 -1.3846233
36.70599 -31.547438 -1.3846233
36.48431 -30.960451 -1.3688824
36.716427 -30.762701 -1.3703134
10.282103 -30.540831 -1.4953026
-26.661976 -30.346251 -1.4092416
-26.709486 -30.19779 -1.4064497
37.257191 -30.232582 -1.3726031
-26.71118 -30.009235 -1.4015638
10.218311 -30.056236 -1.4730263
-26.73197 -29.843292 -1.3977249
10.225055 -29.768909 -1.4604958
37.352772 -29.730696 -1.3657342
-26.713339 -29.645073 -1.3921409
37.609573 -29.550999 -1.36831
-26.752628 -29.50178 -1.3893489
10.223543 -29.462965 -1.4470371
39.542171 -29.493027 -1.4112396
40.040646 -29.475115 -1.4224014
-26.771063 -29.336401 -1.3855101
39.137573 -29.383038 -1.4000779
39.650696 -29.380558 -1.4118121
40.144054 -29.367985 -1.4229738
-26.768444 -29.149105 -1.3806241
38.638363 -29.198481 -1.385482
40.122917 -29.159447 -1.418967
-26.792046 -28.991484 -1.3771341
10.187164 -29.063061 -1.4289376
-26.808113 -28.826683 -1.3732952
-26.816589 -28.654766 -1.3691072
-26.844799 -28.50491 -1.3659663
-26.879215 -28.362406 -1.3631742
-26.8992 -28.205515 -1.3596843
-26.932312 -28.063187 -1.3568923
-26.97868 -27.935316 -1.3547984
22.499405 -27.962469 -1.4461844
-27.059343 -27.843252 -1.3544494
10.120261 -27.750317 -1.3704621
-27.17284 -27.620457 -1.3516575
-27.085938 -27.705683 -1.3516575
34.044903 -26.239647 -1.4996313
10.178355 -25.860931 -1.4544162
10.263236 -25.838108 -1.4549395
10.362929 -25.852087 -1.4575562
10.42163 -25.763857 -1.4544162
43.828255 -25.742624 -1.4541693
17.590755 -25.52157 -1.4382194
43.865738 -25.579628 -1.4527383
-27.068007 -25.473248 -1.4977763
17.613892 -25.384115 -1.4335785
17.773645 -25.443296 -1.4400758
24.06167 -25.363762 -1.4086996
-27.089527 -25.333473 -1.4945517
24.222404 -25.29332 -1.411118
24.403835 -25.243601 -1.4147456
-27.08116 -25.166613 -1.489715
10.41112 -25.055832 -1.4198744
-27.101377 -25.027168 -1.4864906
-27.106255 -24.874336 -1.4824598
10.404389 -24.831406 -1.4088839
-27.125214 -24.735186 -1.4792354
-27.153879 -24.450583 -1.4723833
-27.143557 -24.596167 -1.4760109
-27.163549 -24.305185 -1.4687557
-27.180048 -24.166603 -1.4655313
-27.173475 -24.008312 -1.4610976
11.240303 -24.024075 -1.3879495
-27.203722 -23.883261 -1.4586792
11.33209 -23.925644 -1.3853328
11.470539 -23.926077 -1.3884729
11.597787 -23.997824 -1.3947532
14.207027 -23.990639 -1.4591265
-27.195803 -23.725416 -1.4542456
11.642712 -23.709339 -1.3821926
21.0571 -23.803534 -1.4746506
11.773619 -23.599974 -1.3800991
11.637411 -23.511541 -1.3727721
-14.635757 -22.27548 -1.3947532
-14.503391 -22.302389 -1.3921363
-14.38449 -22.272348 -1.3874263
-14.163779 -22.235952 -1.3795757
-14.034901 -22.26438 -1.3772206
-13.87958 -22.249838 -1.3722488
-13.49013 -22.243189 -1.3612583
-13.198321 -22.231951 -1.3528844
12.893426 -22.204868 -1.4827176
-13.741241 -22.182974 -1.3654451
-11.91312 -22.090136 -1.4492295
-11.780708 -22.093136 -1.4457651
-11.601809 -22.086168 -1.4405687
-11.458825 -22.070768 -1.4359497
-11.320148 -22.052448 -1.4313306
-14.141901 -22.048452 -1.3706787
-11.18638 -22.042297 -1.4272889
-11.051376 -22.037693 -1.4235359
-10.870403 -22.016232 -1.4177622
-10.696919 -22.01228 -1.4131432
-10.569289 -22.012985 -1.4099675
-10.482902 -22.010031 -1.407658
-10.129883 -21.966009 -1.3966876
-10.003513 -21.963493 -1.393512
-9.8306065 -21.948479 -1.3886043
-9.6603031 -21.936728 -1.3839853
-9.4904556 -21.918304 -1.3790774
-9.3673763 -21.911512 -1.3759019
-9.2446041 -21.909393 -1.3730149
-9.1220541 -21.90667 -1.3701282
-9.030323 -21.879856 -1.3666638
-8.6232224 -21.861135 -1.3568484
-8.5092335 -21.87359 -1.3551161
-8.166256 -21.872147 -1.4908823
-8.0080757 -21.866798 -1.4870522
-7.850317 -21.860319 -1.483222
-7.6934276 -21.841976 -1.4787536
-7.5822291 -21.85445 -1.4771576
-7.4533844 -21.814344 -1.4720508
-7.3003206 -21.813435 -1.468859
-7.142971 -21.797213 -1.4647096
-6.9906311 -21.794149 -1.4615178
-6.8326259 -21.770996 -1.4570494
-6.6840258 -21.775322 -1.4544959
-6.5683589 -21.763617 -1.4516233
12.830071 -21.779305 -1.4596223
13.178858 -21.896952 -1.4757891
13.226892 -21.821285 -1.4734795
-6.3541865 -21.660732 -1.4414096
-6.2267609 -21.723656 -1.4430056
-6.1202688 -21.738377 -1.4420481
-5.9296341 -21.713541 -1.4372603
-5.7828531 -21.711784 -1.4347069
-5.6312733 -21.689735 -1.4308767
-5.4894562 -21.695183 -1.4289618
-5.3394175 -21.665791 -1.4248123
-5.1961775 -21.669804 -1.4228972
-5.0803523 -21.635777 -1.4190671
-3.7335429 -21.604624 -1.3999165
12.888244 -21.72172 -1.4584676
17.884167 -21.669422 -1.4703786
-14.469019 -21.510984 -1.356548
-14.282113 -21.515772 -1.3513144
-3.8335781 -21.576935 -1.3992782
-3.5239029 -21.579138 -1.3960862
-3.3800132 -21.548197 -1.3926817
-3.203083 -21.523125 -1.3893836
-3.0656881 -21.528004 -1.3884261
-2.9295731 -21.526808 -1.3871493
-2.792294 -21.514851 -1.3852341
-2.652164 -21.492355 -1.3826808
-2.4791327 -21.47612 -1.3803401
-2.3073566 -21.466862 -1.3785315
-2.172909 -21.485905 -1.3788507
-2.0687733 -21.466129 -1.3769356
17.962362 -21.487637 -1.4656684
-9.555274 -21.307501 -1.4912014
-4.9359136 -21.321047 -1.3973629
-3.908361 -21.411392 -1.3897028
-1.9967076 -21.422838 -1.3737439
-1.8934996 -21.407135 -1.3721479
-1.7288142 -21.432703 -1.3728927
-1.5918318 -21.446714 -1.3731055
-1.3895127 -21.400768 -1.3692752
-1.2880657 -21.397091 -1.3686368
-1.119462 -21.396536 -1.3679985
-0.95095277 -21.394741 -1.3673601
-0.8157205 -21.380352 -1.3660835
-0.68213612 -21.350086 -1.3638492
-0.54996032 -21.358887 -1.3641684
-0.38173309 -21.335897 -1.3624662
-0.2141085 -21.334953 -1.3622534
-0.08001861 -21.325899 -1.3616151
0.050206982 -21.31102 -1.3606575
0.15439771 -21.315536 -1.3609767
0.41831887 -21.30201 -1.3603383
18.073109 -21.414221 -1.4664534
18.278671 -21.383747 -1.4722104
-12.219955 -21.210445 -1.4134318
-9.4437075 -21.237099 -1.4841795
-6.3545499 -21.296396 -1.4190671
0.252619 -21.284634 -1.3590616
0.35122734 -21.29324 -1.3597
0.51846683 -21.289799 -1.3597
1.5815791 -21.207279 -1.357785
1.7159684 -21.211845 -1.3587425
1.8469348 -21.195839 -1.3584232
2.0133939 -21.200747 -1.3597
-4.8178988 -21.112658 -1.3826808
-4.5696411 -21.091175 -1.3778932
-4.4286222 -21.070244 -1.3747013
-4.2881947 -21.058544 -1.372148
-4.1518517 -21.055328 -1.3702328
-3.9743187 -21.023504 -1.3660835
-12.469674 -20.878767 -1.4041936
-12.38384 -20.958754 -1.4056371
-12.191578 -20.932648 -1.3987086
-10.080099 -20.876057 -1.4803493
4.9690208 -20.995567 -1.377574
-10.460352 -20.749596 -1.4838603
-10.266574 -20.766352 -1.4792854
-10.080153 -20.709673 -1.4707741
-9.9756861 -20.826611 -1.4746042
-12.603477 -20.658062 -1.3972651
-10.55187 -20.607952 -1.4784343
5.0149899 -20.611578 -1.3543802
5.1800137 -20.584492 -1.3552314
5.3167415 -20.580524 -1.3571466
5.4187441 -20.57457 -1.3584232
5.55474 -20.57962 -1.3609767
-10.580072 -20.425081 -1.468859
5.4771957 -20.548759 -1.357785
-12.861386 -20.291904 -1.3871608
-12.700996 -20.316195 -1.3834078
-10.996451 -20.283457 -1.4733275
-10.59803 -20.303261 -1.4624754
-5.5075388 -20.334099 -1.4961594
-5.3618436 -20.300793 -1.4911911
-13.11536 -20.128685 -1.3871608
-12.945449 -20.143509 -1.3825419
-10.861775 -20.186064 -1.4637522
-10.77951 -20.18487 -1.4611987
-13.308918 -20.07917 -1.3909138
-13.19635 -20.045845 -1.3857174
-5.825706 -20.006401 -1.4798352
-5.6508265 -19.989101 -1.4752216
-5.4870057 -20.00886 -1.4734473
-13.227801 -19.821388 -1.3759019
-10.552551 -19.909975 -1.4388561
-6.4601293 -19.852606 -1.482674
-6.0825157 -19.851566 -1.4745119
-5.9996076 -19.902855 -1.4762863
-5.7797222 -19.848265 -1.4681242
-5.5178299 -19.876184 -1.4649302
-13.295576 -19.788019 -1.3764794
-10.341355 -19.660358 -1.4184288
-6.5784483 -19.792692 -1.4812545
-6.206944 -19.697929 -1.4667046
-5.9000273 -19.797331 -1.4670595
-28.233557 -19.638016 -1.3857251
-13.22338 -19.547728 -1.3626221
-9.2373877 -19.608467 -1.3839575
-6.7920413 -19.509274 -1.4670594
-6.6967754 -19.531662 -1.4663497
-6.5643978 -19.544985 -1.4642204
-6.4476948 -19.604795 -1.4656399
-6.2443943 -19.607586 -1.4613814
8.4000397 -19.612919 -1.3622534
-13.295592 -19.456341 -1.3606013
-11.171082 -19.431616 -1.431196
-9.0575161 -19.384203 -1.3660835
-7.4175935 -19.429693 -1.4769961
-7.3212419 -19.359598 -1.4698985
-7.0993261 -19.415497 -1.4681242
-6.9670987 -19.431549 -1.4659948
-6.8539724 -19.392439 -1.4606718
-4.2228141 -19.375048 -1.4081501
-2.6311941 -19.384895 -1.4953456
-2.3233087 -19.384125 -1.4922906
-1.9869504 -19.411438 -1.4915271
-1.6183468 -19.375601 -1.486181
8.6260052 -19.38356 -1.354593
-27.963684 -19.255341 -1.3679905
-13.415565 -19.240086 -1.3542501
-13.31625 -19.290798 -1.353384
-11.313297 -19.256624 -1.426089
-11.212376 -19.292446 -1.4248123
-7.2289023 -19.298431 -1.4635106
-6.5616751 -19.335346 -1.4500254
-4.2793541 -19.342205 -1.4067305
-2.6274953 -19.345242 -1.4922906
-2.0593491 -19.223425 -1.4777802
-1.8545176 -19.279301 -1.4804533
-1.7641425 -19.29281 -1.4808351
-1.2893203 -19.215519 -1.4024068
14.845196 -19.33786 -1.407658
-27.996368 -19.083956 -1.3651689
-13.480217 -19.139957 -1.3516519
-11.472781 -19.185257 -1.4273658
-11.334832 -19.162836 -1.4216205
-7.7757783 -19.106188 -1.4649302
-7.5019822 -19.108223 -1.4578327
-7.4136229 -19.147999 -1.4581876
-7.1092701 -19.16206 -1.4514449
-2.9247208 -19.080627 -1.475489
-2.7780619 -19.126001 -1.4772711
-2.1728449 -19.145607 -1.4728161
0.59343386 -19.144747 -1.4640335
0.65315634 -19.104641 -1.39191
8.8280592 -19.083878 -1.4933203
14.822699 -19.128235 -1.3972651
-27.973454 -18.93988 -1.3611385
-7.900732 -18.984623 -1.4603168
-7.7903056 -18.970938 -1.4564133
-3.332376 -18.957993 -1.4712887
-3.0083747 -19.027262 -1.4724342
-2.1587119 -19.021872 -1.4632697
-1.2589824 -19.032581 -1.4579238
14.893326 -18.971863 -1.392646
15.013581 -18.940617 -1.395533
15.201028 -18.931555 -1.4018841
-27.999657 -18.829592 -1.3595262
-7.9750514 -18.82901 -1.4521546
-3.6341429 -18.775557 -1.4617423
-3.4889603 -18.797981 -1.4613605
-3.0379453 -18.830694 -1.4579238
-27.9839 -18.691578 -1.3558986
-11.81355 -18.61195 -1.4075767
-8.2708931 -18.624599 -1.4471864
-8.2030048 -18.709042 -1.4507351
-8.0362024 -18.727062 -1.4471864
-3.9224608 -18.686882 -1.4594511
-3.7850926 -18.613455 -1.4518141
-3.549031 -18.649754 -1.4510504
-3.3713334 -18.672562 -1.4502866
-28.013264 -18.520948 -1.3530772
-4.3065639 -18.49976 -1.4518141
-4.0904737 -18.482342 -1.4468499
-4.0123601 -18.535185 -1.4495229
-3.8173084 -18.474533 -1.4418857
-3.687654 -18.582153 -1.4479954
-11.764518 -18.406544 -1.3948096
-11.558205 -18.336554 -1.3839575
-11.474077 -18.330471 -1.3807657
-11.299929 -18.368046 -1.3769356
-11.142303 -18.300739 -1.3679986
-11.087955 -18.333719 -1.3679986
-8.458498 -18.419481 -1.4393791
-8.2932482 -18.363142 -1.4308621
-7.9721904 -18.417938 -1.4251841
-4.4134254 -18.433548 -1.4487592
-4.2038026 -18.318838 -1.4365398
-4.1396298 -18.302778 -1.4342487
-3.9208326 -18.391676 -1.4373035
-11.730507 -18.226809 -1.3839575
-8.6262608 -18.187075 -1.4294425
-8.4702282 -18.293247 -1.4315718
-4.5555797 -18.265371 -1.438831
-4.407783 -18.157984 -1.428139
-2.333148 -18.179846 -1.4908048
-1.7631755 -18.233932 -1.4899924
-1.6458745 -18.214872 -1.487555
-1.1274209 -18.207636 -1.4837637
-1.0155551 -18.260862 -1.487555
6.9032717 -18.186989 -1.4869447
-11.932893 -18.100899 -1.3842766
-11.775434 -18.108566 -1.3791698
-8.8628902 -18.09516 -1.4308621
-8.77985 -18.06908 -1.4266037
-8.6643658 -18.047289 -1.4216354
-8.4855003 -18.110046 -1.4202158
-4.2706861 -18.088284 -1.4205019
-2.8306189 -18.028349 -1.4843054
-2.5554564 -18.129801 -1.48918
-2.4604802 -18.072502 -1.4834929
-2.2623765 -18.078302 -1.481868
-2.2091992 -18.115 -1.4843054
-2.0918941 -18.098822 -1.481868
-1.5721377 -18.031301 -1.4721189
-1.4311666 -18.073008 -1.4745562
-1.2937083 -18.123362 -1.477806
6.6444979 -18.102638 -1.4739616
-12.101135 -17.930641 -1.3811913
-11.979034 -17.99255 -1.3801273
-8.9171133 -17.919992 -1.4213986
-5.9279246 -17.909214 -1.4418857
-5.2607274 -17.950247 -1.4296664
-5.1821108 -17.89007 -1.4235567
-4.5712705 -17.850035 -1.4082826
-4.4219046 -17.969778 -1.4143922
-2.7542341 -17.909094 -1.4737438
-2.5810497 -17.904661 -1.4713064
-2.3615911 -17.955034 -1.4729313
-2.125175 -17.894218 -1.4656194
-2.0227466 -17.996357 -1.4729313
-1.5062708 -17.926903 -1.4631823
6.6292391 -17.926348 -1.4088783
-28.801592 -17.712355 -1.3623476
-12.586607 -17.793381 -1.3916178
-12.363857 -17.772852 -1.3823617
-12.164757 -17.782932 -1.3756589
-9.3291655 -17.757889 -1.4244744
-8.963604 -17.733086 -1.4109889
-5.9367661 -17.759161 -1.4311938
-5.7879367 -17.766258 -1.428139
-4.8326988 -17.708696 -1.4029365
-4.4858398 -17.748306 -1.3991179
-2.6462002 -17.764137 -1.4607451
-1.8906765 -17.83025 -1.4583076
6.6726971 -17.823822 -1.3513697
-29.040461 -17.608772 -1.3683935
-28.925314 -17.663452 -1.3655721
-12.415936 -17.6695 -1.3788507
-12.175298 -17.678864 -1.3705519
-9.361578 -17.684414 -1.4209256
-8.9423132 -17.553736 -1.3989232
-6.4815521 -17.631382 -1.435776
-5.6216879 -17.631277 -1.4143922
