# .PCD v0.7 - Point Cloud Data file format
VERSION 0.7
FIELDS x y z
SIZE 4 4 4
TYPE F F F
COUNT 1 1 1
WIDTH 352
HEIGHT 1
VIEWPOINT 0 0 0 1 0 0 0
POINTS 352
DATA ascii
0.25747001 1.8412 1.0589
0.249515 1.83565 1.06375
0.25292999 1.841 1.0618
0.26759002 1.8451333 1.0741
0.28398001 1.8542 1.0784334
0.292072 1.63298 1.09412
0.31637999 1.6321334 1.0956665
0.25232375 1.8296874 1.095475
0.24849285 1.8505715 1.0908215
0.28444001 1.8556 1.0815001
0.28741997 2.0109999 1.0991499
0.29244 2.033 1.0994999
0.26026499 2.0893998 1.0812
0.31128749 1.6260749 1.104625
0.33415002 1.6215501 1.1027501
0.34454 1.7987 1.11535
0.25181001 1.8355 1.1007
0.29947001 1.8785 1.1173
0.31252286 1.8908571 1.1106143
0.31326598 1.9068 1.10782
0.38238001 1.9057 1.1187
0.31769001 1.9629 1.1198
0.33054 1.9687999 1.1199
0.30840498 2.01845 1.1136
0.32207 2.0153999 1.1106
0.28887001 2.0316 1.1004
0.31150332 2.0276334 1.1160333
0.33123401 2.0982599 1.11704
0.34187999 2.0985999 1.1085
0.33736143 2.1038857 1.1143142
0.34169999 2.1059999 1.1161
0.2314475 1.6105 1.1316749
0.24528 1.6107 1.13355
0.27218199 1.6130998 1.12997
0.28878 1.6113667 1.1329333
0.30947 1.61166 1.1318001
0.3295733 1.6140667 1.1287667
0.35245836 1.6136333 1.1281333
0.36560997 1.613475 1.128175
0.39143997 1.6149 1.12815
0.30778 1.6360999 1.1321334
0.32235 1.6364666 1.1313666
0.3441 1.6379 1.1285
0.31856197 1.6481701 1.1336501
0.32899386 1.649146 1.1265461
0.34411502 1.6443501 1.1257
0.3177425 1.6664915 1.133175
0.32574105 1.6697999 1.130921
0.34185249 1.6767 1.1293
0.31793302 1.6893699 1.13582
0.32377875 1.6904874 1.1303188
0.34268999 1.68365 1.12985
0.31916332 1.7057 1.1313001
0.32490221 1.7099667 1.1286612
0.31802332 1.7285333 1.1312556
0.32421845 1.7325768 1.130246
0.3183175 1.7539251 1.1352501
0.3248305 1.7495209 1.1306843
0.31924 1.7611001 1.1378
0.32554752 1.763075 1.131675
0.35905498 1.79495 1.1340001
0.37988001 1.7937 1.1332
0.38072002 1.7953 1.13455
0.31710336 1.8289334 1.1383333
0.32407647 1.831447 1.1332765
0.31900167 1.8511667 1.1319166
0.32394153 1.8496385 1.1334692
0.31538999 1.8616 1.1323
0.32508999 1.8618 1.13105
0.38194999 1.9024 1.1216
0.3124572 1.9348166 1.1305445
0.32133001 1.9365 1.1243
0.31262076 1.9511294 1.1312888
0.32510141 1.947157 1.1261429
0.31216955 1.9694439 1.1321609
0.32509857 1.9677714 1.1274858
0.31140199 1.9809 1.1342
0.36190999 2.0180001 1.137
0.31939751 2.0947251 1.1365
0.32777712 2.0953569 1.1280215
0.32504001 2.1013999 1.1317
0.34312999 2.1013999 1.1289001
0.261145 1.6058 1.1498001
0.35762 1.607 1.1492666
0.27841002 1.6365499 1.159
0.31396666 1.6347667 1.1529223
0.32288 1.6357625 1.1465249
0.25986999 1.6408 1.1583
0.26428998 1.64475 1.15745
0.28053999 1.64925 1.158
0.31109941 1.6503445 1.1562667
0.32318848 1.649545 1.147155
0.28968334 1.6711665 1.1565666
0.31316212 1.6694528 1.1560264
0.32347998 1.6689264 1.1477685
0.24662501 1.6833 1.15165
0.29414499 1.6902 1.15555
0.31290931 1.6887534 1.15474
0.3227115 1.6907251 1.1473249
0.23917 1.7180001 1.1508
0.25034499 1.70295 1.1524999
0.27588001 1.7111999 1.1526667
0.29216427 1.7117571 1.1546857
0.31343833 1.7077166 1.1538084
0.32284999 1.7112126 1.1478875
0.29158249 1.72535 1.154025
0.31630376 1.73475 1.1495876
0.32288405 1.7283295 1.1473176
0.29723999 1.7589999 1.1522
0.31477198 1.7517599 1.15162
0.32348874 1.7489438 1.1455001
0.29843 1.76315 1.1526999
0.31605315 1.771505 1.1501422
0.32288286 1.7633857 1.1453285
0.31703863 1.7893652 1.1488956
0.3215625 1.7965499 1.1441001
0.35026714 1.7902 1.1463001
0.36609 1.7941999 1.1411999
0.30950311 1.8075938 1.1487062
0.31550503 1.8281748 1.1486875
0.32216832 1.8306333 1.1459
0.242915 1.8430001 1.14375
0.28488332 1.8491334 1.1491333
0.3169075 1.8523583 1.1486
0.32373399 1.8490065 1.1445999
0.270895 1.8737001 1.1576667
0.31628725 1.8731999 1.1550363
0.32001001 1.8612 1.1418
0.28963 1.8825001 1.1588
0.31608331 1.8860334 1.1529444
0.32780248 1.8946499 1.1535125
0.312222 1.9135001 1.15564
0.32266 1.90605 1.15785
0.31422698 1.9328998 1.15363
0.32174 1.93422 1.1530601
0.29956001 1.9475 1.1599
0.31431997 1.9483961 1.1528001
0.32073 1.9426 1.1535
0.31291449 1.9689033 1.1508485
0.31285286 1.9879215 1.154157
0.31142539 2.0105383 1.1548308
0.34696898 2.0175302 1.1522501
0.29377002 2.0390999 1.1553
0.30717385 2.0277231 1.1535385
0.33723003 2.0236502 1.146
0.34524667 2.0214334 1.1433001
0.31530997 2.0949428 1.1492071
0.32392603 2.0987401 1.1486399
0.32755798 2.10182 1.1499201
0.22597 1.6034 1.1776
0.27795997 1.6044666 1.1683
0.29301751 1.604975 1.170925
0.31437999 1.6066 1.1661
0.32714498 1.60495 1.179
0.34909749 1.60605 1.1714001
0.38560668 1.6078 1.1644334
0.24093001 1.7965 1.165
0.26447999 1.8789999 1.16
0.31685999 1.872 1.1610999
0.32287499 1.8623 1.1635499
0.25386 1.8986 1.1662
0.29054999 1.8808 1.1611
0.32902667 1.8927499 1.1668667
0.34296 1.8974 1.179
0.28596666 1.9132 1.1653
0.30962834 1.9097916 1.1642584
0.32398 1.9033248 1.1623
0.3119244 1.9311221 1.1620333
0.30624753 1.9530876 1.1626375
0.30908665 1.968475 1.1628166
0.3081618 1.9907273 1.1659819
0.30807418 2.0106173 1.168407
0.296615 2.0373502 1.1645501
0.30665389 2.0277722 1.1668833
0.29277 2.0427999 1.1615
0.29765499 2.0914249 1.1705
0.31445 2.0946097 1.16898
0.32064497 2.09705 1.1675999
0.32534403 2.1010799 1.16784
0.27746999 1.6038001 1.1913251
0.29688334 1.6032 1.1984667
0.39135 1.6049 1.198
0.34053999 1.8988 1.1825
0.31421337 2.0945613 1.1905444
0.32222664 2.0985668 1.1846666
0.32811749 2.1019502 1.18955
0.254325 1.6033499 1.2074
0.29837 1.6029 1.2176
0.37478501 1.6052999 1.20235
0.250525 1.8217 1.20065
0.31653699 2.09495 1.2103999
0.3231 2.098475 1.2117
0.263935 2.1178 1.21945
0.32754385 2.1058462 1.2134538
0.26854497 2.1475501 1.2176001
0.33189332 2.1533666 1.2181001
0.31557667 2.164 1.2169
0.29486001 1.60235 1.2219
0.34850001 1.6038001 1.2244
0.27766666 2.0961668 1.23
0.31277385 2.0946231 1.2279078
0.32199603 2.0985799 1.22498
0.26671526 2.1090736 1.2279052
0.32997739 2.1103444 1.2266518
0.33586901 2.13046 1.226675
0.26578823 2.1489394 1.2268894
0.33048651 2.14993 1.226485
0.27375665 2.161 1.2306999
0.28282666 2.1644332 1.2275333
0.31759 2.1622 1.227
0.33055666 1.5901333 1.2717667
0.37374333 1.594 1.2694334
0.25578499 1.58775 1.2875
0.37710333 1.5938667 1.2917666
0.22981668 1.5864334 1.3084666
0.26126 1.5877666 1.3141999
0.32497999 1.5914 1.3085999
0.23569 1.5864 1.3352
0.35514334 1.5922667 1.3327333
0.29953 1.589 1.3554
0.30178499 1.58945 1.3538001
0.33269 1.591 1.3576
0.27399999 1.5879 1.369
0.30203003 1.5892501 1.36185
0.33602002 1.5912199 1.3658
0.27846 1.5875 1.3939
0.28277668 1.5884666 1.3879334
0.30983666 1.5893334 1.3904667
0.33833995 1.5906 1.3934001
0.34099001 1.5912 1.3888
0.26308501 1.5879 1.4066999
0.29746002 1.5888 1.43505
0.24671668 1.5869001 1.4498334
0.27165332 1.5874 1.4505
0.28826499 1.5888 1.47835
0.30794001 1.5891 1.467
0.23758334 1.5871998 1.4867001
0.27107999 1.5884 1.4992
0.28894001 1.5885 1.4873
0.32879999 1.5910749 1.4965
0.23957001 1.5861 1.516
0.2458 1.5861499 1.53385
0.27663001 1.5877 1.5317
0.34191999 1.591 1.5398999
0.31259 1.5891 1.5506001
0.33836001 1.59045 1.54145
0.23702 1.5863 1.5683
0.24061 1.5865 1.5767
0.26673999 1.587 1.5785
0.238435 1.5859001 1.58155
0.24459 1.58645 1.5890501
0.26912999 1.5872999 1.5806
0.29370001 1.5876 1.5843
0.33037999 1.5896 1.5944999
0.26403999 1.5878 1.6180501
0.34455001 1.5905 1.6181999
0.25868499 1.5864501 1.6268001
0.26100001 1.587 1.6217999
0.28819001 1.5880001 1.6212
0.25104001 1.58565 1.64925
0.25328001 1.5863 1.6719999
0.30900401 1.5882 1.67258
0.25439 1.5857 1.6853
0.29270664 1.5877666 1.6918
0.31560999 1.5886 1.6824
0.24656001 1.5861 1.7133
0.29393747 1.5867499 1.710825
0.29372999 1.5861 1.7211
0.31395751 1.5869999 1.753925
0.23825 1.5849 1.7654001
0.24011999 1.5852 1.7632999
0.27463999 1.5863 1.7744999
0.28880665 1.5853667 1.7701334
0.25291333 1.5851666 1.7925
0.27144498 1.5847999 1.78895
0.33552667 1.5878667 1.7894667
0.25820997 1.5852333 1.8022
0.27564335 1.5845667 1.8015
0.24953668 1.5847667 1.8381333
0.2712 1.5846 1.8380001
0.30357 1.5865332 1.8322667
0.329355 1.5878 1.823
0.28645334 1.5856667 1.8542334
0.31288999 1.586 1.8587999
0.23636 1.5843 1.8654001
0.26416001 1.5844001 1.8723
0.29425502 1.5857999 1.8680501
0.324835 1.58735 1.8638
0.2392 1.5836 1.8803999
0.24188 1.5838 1.8822
0.264395 1.5850501 1.9084001
0.32186332 1.5871334 1.9036001
0.26484999 1.5838001 1.92545
0.23434 1.5845 1.9481
0.25567001 1.5845 1.9437001
0.28572667 1.5846 1.9534668
0.26381001 1.5839 1.965
0.28784502 1.58425 1.9619
0.25723001 1.5836999 1.9984
0.288315 1.585 1.99395
0.31287003 1.585 1.99545
0.25362334 1.5834999 2.0083001
0.26217002 1.5839 2.0037
0.242855 1.58295 2.0250001
0.30661666 1.5959667 2.0490999
0.25716999 1.5973001 2.0767
0.27332002 1.5964 2.0708001
0.31170332 1.5977665 2.0743001
0.25307 1.5977499 2.0847499
0.25279999 1.6016001 2.0984001
0.27142999 1.6021 2.0991001
0.28226 1.6871001 2.0998001
0.27781999 1.7179 2.0996499
0.30037999 1.737 2.0999999
0.29615998 1.74335 2.099
0.26058999 1.8121001 2.0999
0.28159001 1.8124 2.0999
0.25871 1.6088001 2.1017001
0.2618933 1.6152334 2.1013334
0.29020998 1.6141 2.1019666
0.3097375 1.610525 2.1031249
0.26269999 1.6209 2.1013999
0.289675 1.63345 2.1048
0.30128998 1.6227 2.1020999
0.28159666 1.6930333 2.1008666
0.27429399 1.7242401 2.1042399
0.28022 1.7255 2.1097
0.29764399 1.7491601 2.1046002
0.26515666 1.7679334 2.1016333
0.28946668 1.7717333 2.1066668
0.25316501 1.7923 2.1005499
0.27011001 1.7877001 2.1013999
0.27913001 1.8124 2.1004
0.28929999 1.8106 2.1046
0.26899001 1.8298 2.1071999
0.29448 1.8367 2.1024001
0.27500999 1.8594 2.1027999
0.29073334 1.8534333 2.1091669
0.28809249 1.89315 2.1024749
0.26528251 1.9098251 2.1027501
0.28252 1.9149667 2.1031666
0.27127498 1.93785 2.1020498
0.28536999 1.9208 2.1029
0.2769925 1.9531751 2.1066
0.28165001 1.9565001 2.1089001
0.28319001 1.9711 2.1048999
0.271265 1.9884501 2.1037002
0.28750333 1.992 2.1048334
0.27680668 2.0321 2.1075001
0.27894002 2.08445 2.1096001
0.26901498 1.655575 2.1214502
0.26679 1.6612 2.1205001
