# .PCD v0.7 - Point Cloud Data file format
VERSION 0.7
FIELDS x y z
SIZE 4 4 4
TYPE F F F
COUNT 1 1 1
WIDTH 294
HEIGHT 1
VIEWPOINT 0 0 0 1 0 0 0
POINTS 294
DATA ascii
0.120345 1.612 1.1314
0.053559501 1.63675 1.15605
0.086649679 1.6339999 1.1550666
0.10149667 1.6339334 1.1544
0.107545 1.65775 1.1524
0.057635002 1.67445 1.14905
0.067451999 1.6740001 1.14884
0.10967001 1.6716 1.1494167
0.039340001 1.6986001 1.1523
0.049045749 1.6953501 1.1499749
0.068391673 1.6859666 1.1483666
0.084112249 1.6950001 1.1475251
0.10588857 1.6883714 1.1479714
0.050879002 1.7016 1.1483001
0.10746 1.70338 1.1468199
0.032323498 1.9475666 1.15265
0.097273998 1.9469 1.1514
0.019432999 1.9744999 1.1598001
0.055679001 1.9741 1.1598001
0.092579335 1.9633332 1.1590334
0.112415 1.9765 1.1577001
0.11216 1.9818 1.159
0.079549 1.7304 1.1707
0.089729004 1.73005 1.1779499
0.057241201 1.8706601 1.1684599
0.057013001 1.8808 1.1707
0.0583755 1.9749 1.1605
0.094007999 1.97795 1.1607001
0.10114 1.975 1.1603
0.020915 1.9856 1.1605999
0.10088 1.9894 1.1608
0.110495 2.0248499 1.17135
0.15007 2.0318999 1.1733
0.0291362 2.0507998 1.16658
0.15612713 2.0547357 1.1751643
0.15643001 2.06145 1.17265
0.036123998 1.5933499 1.19175
0.041762002 1.5914 1.1884
0.093163006 1.7322334 1.1818
0.10533 1.7230999 1.18925
0.076613002 1.8793499 1.1960499
0.090250716 1.8774 1.1908429
0.078338332 1.8833666 1.1989001
0.090145491 1.8892715 1.1939
0.097871996 1.9012001 1.1907001
0.11728 1.9064 1.1914999
0.12862799 1.93766 1.19282
0.13399667 1.9442667 1.1941
0.15284 2.05725 1.18365
0.15257999 2.0625 1.1838
0.081940502 1.5887749 1.21395
0.12205 1.7599 1.2184
0.098122999 1.7763 1.2177999
0.10726666 1.7697668 1.2169499
0.095723912 1.7906364 1.2157636
0.10669 1.7882333 1.2143334
0.13016 1.7923 1.2147501
0.094778091 1.8114833 1.2160916
0.11282 1.8057333 1.2149333
0.12482899 1.8119303 1.2131
0.09419471 1.8267572 1.2175286
0.1011325 1.8332 1.216725
0.11149625 1.8471875 1.2174751
0.083535001 1.5888 1.2209001
0.12193 1.587 1.2209001
0.11171 1.7551715 1.2245142
0.132938 1.7476801 1.2227399
0.094920009 1.7755333 1.2246667
0.10220832 1.7643499 1.22445
0.08844737 1.791079 1.2246473
0.079687998 1.8109 1.2283
0.084892206 1.8111666 1.2257534
0.078279004 1.827 1.2287
0.088899091 1.8283802 1.2253501
0.10119 1.8388 1.2208
0.093715005 1.8431 1.2271001
0.10742727 1.8519727 1.2243272
0.11488 1.8646001 1.2289333
0.12981001 1.8689001 1.2276001
0.14236 2.079 1.2307
0.13348624 2.0949125 1.2294
0.14117999 2.0832334 1.2320666
0.13035174 2.1109912 1.2283913
0.13283125 2.1304419 1.2283624
0.140965 2.13905 1.22585
0.143875 2.1455667 1.2320501
0.042206001 1.5928 1.2575999
0.027554998 1.5942334 1.2655667
0.057686001 1.5908 1.2723
0.075267002 1.5893 1.2781
0.11347 1.5878 1.2724
0.046572 1.5915666 1.3085999
0.098892003 1.5878 1.3137
0.10083 1.5881 1.314
0.029938798 1.5937401 1.33666
0.10238 1.5878 1.3233
0.037610002 1.592 1.3592
0.050338998 1.59075 1.3432
0.1079 1.5877333 1.3485667
0.037302501 1.5919 1.3614
0.091912001 1.5878 1.3788
0.11542 1.5876 1.3783
0.024072001 1.5927 1.3867
0.060812 1.59015 1.3921
0.094180003 1.5880001 1.38255
0.1148 1.5873332 1.3832
0.035213999 1.5932 1.4107
0.040617999 1.5905 1.4026
0.052969001 1.5908 1.4354
0.068829998 1.5899 1.4219
0.090279661 1.5890666 1.4291334
0.033900999 1.5915 1.442
0.053142335 1.5904335 1.4435667
0.091329999 1.58845 1.4446499
0.11329749 1.58775 1.45005
0.099424005 1.5885 1.4695001
0.101825 1.5891 1.4623001
0.031367332 1.5926666 1.4880667
0.061508 1.5891 1.4960999
0.031178668 1.5916001 1.5088667
0.091386497 1.5888 1.5122499
0.11661 1.5886 1.5168
0.076211996 1.5891 1.5369
0.092868 1.5881749 1.529575
0.11461 1.58815 1.5209
0.091875002 1.5875 1.5403
0.025520001 1.5913 1.5709
0.081519 1.5881 1.5700999
0.100525 1.5867 1.5778
0.12077 1.5858999 1.5791
0.032565501 1.59085 1.59675
0.051796503 1.5901 1.59115
0.0731695 1.589 1.59665
0.083346002 1.5874 1.5874
0.10185 1.5865999 1.5822001
0.031326 1.5909333 1.6142
0.10813 1.58635 1.6029
0.030998668 1.5921 1.6355667
0.055838663 1.5896999 1.6283332
0.099108003 1.5869 1.6357
0.10161 1.5872999 1.6337
0.12434 1.5868 1.6366
0.0311925 1.5906999 1.65985
0.051055498 1.5907 1.64275
0.031690001 1.5906 1.6643
0.069342002 1.5876 1.6738
0.1064 1.5864 1.6616
0.023638999 1.591 1.6996
0.055905249 1.5885501 1.690125
0.114785 1.5858001 1.6896501
0.025169 1.5911 1.7019
0.082941003 1.5868 1.7175
0.10125 1.5858001 1.7174
0.039098501 1.5905499 1.7397499
0.056868501 1.5880001 1.7306499
0.089312002 1.5868 1.73155
0.055499751 1.5885251 1.7477249
0.075587496 1.5871 1.7543499
0.0909115 1.58565 1.7539999
0.11871334 1.5861 1.7494
0.1291375 1.586 1.747075
0.028483668 1.5899334 1.7849001
0.069631003 1.5872 1.7961
0.085229002 1.5854 1.7997
0.10504001 1.5854334 1.7860333
0.13019 1.585 1.7894
0.023321001 1.591 1.8155
0.056469999 1.58815 1.81075
0.070165329 1.5868667 1.8019
0.089795999 1.5857 1.8050001
0.11541 1.5853333 1.8084666
0.024496 1.5896 1.8379
0.061246999 1.5869 1.8379
0.082885504 1.5864501 1.8322999
0.11945499 1.58445 1.83025
0.12185 1.5845 1.8324
0.027895 1.5892 1.8489
0.064597748 1.586625 1.8482751
0.107715 1.5852001 1.8471999
0.13008334 1.5841333 1.8547
0.037976 1.5896 1.8616
0.054294001 1.5874 1.8714
0.06591367 1.5857 1.8647666
0.11635 1.5843 1.8755
0.079681002 1.5852 1.8958
0.082233667 1.5855333 1.8963
0.0293795 1.5889 1.90905
0.078716002 1.5877 1.9091001
0.082543999 1.5880001 1.9121001
0.105425 1.58465 1.90125
0.093415 1.585 1.9239
0.1139 1.5832 1.9361
0.034052748 1.587175 1.953325
0.059806999 1.5863 1.9461
0.066296749 1.5866251 1.9526
0.085500002 1.5858001 1.9478
0.10579666 1.5844666 1.9514002
0.027710998 2.2051666 1.9513665
0.13159402 2.2049198 1.9444799
0.17597 2.2072501 1.95735
0.027531501 1.5874 1.97675
0.051941998 1.5867 1.976
0.056948502 2.2069998 1.9656
0.060212001 2.2061 1.972
0.13420001 2.2076001 1.9682
0.036440499 1.5871 1.9947
0.092772335 1.5836998 1.9870666
0.056088001 2.2059999 1.99885
0.071399003 2.2071002 1.9942333
0.090782493 2.20735 1.99265
0.10806 2.2079 1.9927
0.138 2.2061999 1.9891
0.16875334 2.2074335 1.9940001
0.022815999 1.5878 2.0134001
0.133185 1.58285 2.0181499
0.053028755 2.2061749 2.0098751
0.075244337 2.2058666 2.0120335
0.15011801 2.2070401 2.00348
0.16857 2.2072001 2.00125
0.030657001 1.5871 2.0352001
0.067887999 1.5846 2.0297
0.085501999 1.58302 2.0311
0.070331998 2.2063 2.026
0.12962499 2.2067499 2.0202501
0.049465001 1.5842667 2.0518665
0.12021 1.5821 2.0525999
0.023378501 2.2061501 2.0573001
0.065825 2.2063 2.0511999
0.086602002 2.2063999 2.0492501
0.127455 2.2065001 2.04125
0.022386 2.2061999 2.0618999
0.059184998 2.2070999 2.0653
0.075779326 2.2079332 2.0651667
0.096978001 1.7158999 2.0964
0.10212 1.7126666 2.0954669
0.14466999 1.7395 2.0975001
0.072204001 1.7596 2.0978
0.12846 1.7634 2.0969
0.092997 1.7836 2.0971
0.083970003 1.8191 2.0977001
0.055800665 1.8316332 2.0970666
0.078474 1.8262 2.0989001
0.082442001 1.8227 2.0980999
0.055979125 1.8495876 2.0962751
0.060825501 1.84965 2.0982499
0.10880667 1.8411001 2.0986001
0.14808001 1.8647 2.099
0.14364 1.8891 2.0984001
0.042052001 1.9028 2.0987
0.084436998 2.0127001 2.0997
0.049030662 2.2046001 2.0871999
0.098342001 2.2033999 2.0882001
0.129245 2.2012501 2.0973001
0.15229 2.2007 2.0966501
0.032572001 1.6176749 2.1157999
0.025789201 1.63111 2.1138
0.046770003 1.6225333 2.1179333
0.020422 1.6435 2.1119001
0.046562333 1.6539 2.1182334
0.074999005 1.7486 2.10145
0.043368999 1.899 2.1006999
0.041863333 1.9056001 2.1026666
0.050281502 1.9313749 2.10395
0.116686 1.9641402 2.1013598
0.07350333 1.9924334 2.1009333
0.15288667 1.9911 2.1023333
0.0837925 2.01525 2.10325
0.12593333 2.0075333 2.1105669
0.077274658 2.0326667 2.112
0.1055 2.03545 2.11115
0.12327 2.0411 2.1027999
0.13162833 2.0682333 2.1040499
0.16948 2.0643001 2.1019001
0.085930668 2.0888999 2.1021001
0.13473 2.0857 2.1110001
0.15522 2.1131001 2.1039
0.011037633 2.1553333 2.1171
0.021907 2.1499 2.1196001
0.17600501 2.1659999 2.11695
0.051276665 2.1976001 2.1033001
0.061714999 2.1851001 2.1115999
0.099463001 2.1954 2.1033001
0.10202 2.1986001 2.1029999
0.13664 2.1925001 2.1056001
0.0571605 1.6229501 2.1217999
0.1027175 1.6257249 2.1262999
0.018758999 2.1522 2.1201999
0.037357997 2.1557 2.1232333
0.073990002 2.1586001 2.1287
0.031749334 2.1777334 2.1248333
0.049169499 2.1709001 2.1262999
0.073460497 2.16325 2.1289501
0.019324999 2.1824 2.1210999
0.041804999 2.1805 2.1240001
