# .PCD v0.7 - Point Cloud Data file format
VERSION 0.7
FIELDS x y z
SIZE 4 4 4
TYPE F F F
COUNT 1 1 1
WIDTH 66
HEIGHT 1
VIEWPOINT 0 0 0 1 0 0 0
POINTS 66
DATA ascii
0.28956002 2.2142498 1.130275
0.30866572 2.2147143 1.1295142
0.32124668 2.2158334 1.1297333
0.35238749 2.2140999 1.129375
0.29021001 2.2263334 1.1310166
0.31321251 2.2299168 1.1300499
0.33319333 2.2331998 1.1306666
0.34516001 2.2305999 1.1301999
0.28797168 2.2469332 1.13035
0.30348501 2.2557001 1.13065
0.33117202 2.2511802 1.12986
0.34971726 2.247391 1.1304456
0.27189198 2.2708802 1.1302799
0.28877002 2.26965 1.1307499
0.30460748 2.266475 1.131425
0.33157873 2.2696376 1.1307375
0.34758401 2.2704501 1.12984
0.28857201 2.2893 1.1310199
0.30795002 2.2828999 1.132
0.32828665 2.2912998 1.1313
0.34620875 2.2896123 1.1304625
0.29124498 2.30955 1.1319749
0.30948332 2.3097334 1.1295667
0.32491797 2.3102798 1.13008
0.34935999 2.3072917 1.1294833
0.29250002 2.3355498 1.1302
0.303305 2.3264 1.1289001
0.33074665 2.3280332 1.1306334
0.3495833 2.3303833 1.1292167
0.28981888 2.3500776 1.1301112
0.31437713 2.3545144 1.1298143
0.33038664 2.3433332 1.1296333
0.35182083 2.3497164 1.1303085
0.30179599 2.3716798 1.1301401
0.35361668 2.37025 1.1299167
0.29863 2.3824 1.1294999
0.30580854 2.3889859 1.1302143
0.32401499 2.3829999 1.1291
0.35035908 2.3907092 1.1294181
0.29973 2.4119999 1.131
0.3073217 2.4057667 1.1310166
0.33623284 2.4086711 1.1311142
0.35172403 2.40715 1.1293701
0.28641668 2.4280331 1.1306334
0.31724668 2.4284999 1.1307334
0.32717556 2.4329004 1.1299444
0.30327499 2.4558001 1.1294501
0.32989502 2.4523249 1.13105
0.3434 2.4547665 1.1297333
0.31487498 2.4701252 1.131025
0.33045664 2.4684665 1.1303
0.29257801 2.4891601 1.13292
0.30423334 2.4871001 1.1308999
0.32811335 2.4862165 1.1322833
0.33072001 2.5790999 1.1345
0.31284001 2.5864999 1.1396
0.33480668 2.5808001 1.1337667
0.30899799 2.6036601 1.1326001
0.32826999 2.6108091 1.1324273
0.30844599 2.6283801 1.13334
0.33684999 2.6238499 1.1317999
0.30110002 2.6491001 1.1317
0.32804626 2.6458249 1.1340375
0.33907002 2.5146501 1.21735
0.33823001 2.5114 1.2238001
0.33885497 2.5236001 1.22475
