# .PCD v0.7 - Point Cloud Data file format
VERSION 0.7
FIELDS x y z
SIZE 4 4 4
TYPE F F F
COUNT 1 1 1
WIDTH 266
HEIGHT 1
VIEWPOINT 0 0 0 1 0 0 0
POINTS 266
DATA ascii
0.92698503 0.83749497 2.8196001
0.94920999 0.83679998 2.8194001
0.99101496 0.83503997 2.8181
1.0101 0.83336002 2.8196001
1.0928667 0.83711338 2.8175001
1.1021 0.83538997 2.81915
1.127275 0.83449 2.8194001
1.1478876 0.83541632 2.8173375
1.1687332 0.83465672 2.8177669
1.18872 0.83613998 2.8180799
1.2132801 0.83521003 2.81726
1.2321334 0.83315229 2.8186111
1.25576 0.833758 2.8174198
1.2782 0.83249003 2.8180001
1.3088 0.83734256 2.8186002
1.3233 0.83530998 2.8199
1.1015 0.84294999 2.8185999
1.1388 0.84265 2.8192999
1.1505001 0.84175003 2.8169
1.1765 0.84360999 2.8182001
1.1849 0.84145999 2.8188
1.2064 0.84157997 2.8194001
1.233075 0.84236252 2.819
1.2515 0.84212667 2.819833
1.2708499 0.84042501 2.8192501
1.2904333 0.84846669 2.8190668
1.3124499 0.85044503 2.81985
1.3555 0.85887998 2.8195
1.3781 0.85777998 2.8199
0.77348 0.87409002 2.8194001
1.03004 0.86808795 2.8182199
1.0469 0.87256998 2.8196001
1.0697999 0.86611497 2.8190498
1.0883 0.87153244 2.8189249
1.1320333 0.8686533 2.8194001
1.1457 0.86778998 2.8197999
1.19148 0.86802197 2.8188798
1.20814 0.86871004 2.8190398
1.24685 0.86502004 2.818975
1.2687 0.86746502 2.8197
1.2868667 0.86714333 2.8195
1.3085333 0.87001163 2.81915
1.3266333 0.86827332 2.8186998
1.3476 0.86688495 2.81845
1.3686727 0.87046456 2.8182459
1.390389 0.86599225 2.8187666
1.4033 0.87081999 2.8167
0.602745 0.83842003 2.8327498
0.63208497 0.8385725 2.8286748
0.64982498 0.83944499 2.8323998
0.66530854 0.83420289 2.8329284
0.69245398 0.836456 2.83004
0.711272 0.83466399 2.8310199
0.72831494 0.83582997 2.8294752
0.74730003 0.83614999 2.8262
0.79634857 0.83769429 2.8264859
0.81108665 0.83656329 2.8272667
0.82918549 0.83399326 2.8268445
0.84880543 0.83413368 2.8294547
0.87149286 0.83526856 2.8293285
0.88503379 0.83486491 2.8263752
0.91049713 0.83578002 2.825943
0.93096995 0.83460224 2.8266768
0.9513337 0.8368938 2.8239875
0.97022599 0.83555496 2.8253102
0.99070305 0.83661622 2.825954
1.01 0.83259064 2.8254669
1.0306001 0.83569324 2.8260889
1.0499572 0.83477145 2.8249855
1.0716263 0.83599162 2.8249683
1.0876428 0.8377614 2.8227713
1.1089643 0.83460712 2.8237929
1.1295222 0.83701217 2.8231111
1.1542749 0.83684504 2.8230751
1.1677699 0.83280003 2.8240101
1.1920937 0.83292687 2.8231997
1.2123001 0.83589005 2.8221076
1.2293249 0.83512622 2.822125
1.2509599 0.83457935 2.8223135
1.2674667 0.83382916 2.8220665
1.29 0.83359814 2.8231626
1.3122363 0.83433092 2.8235819
1.3302823 0.83520299 2.8241293
1.3454001 0.83840197 2.8271
0.59669197 0.84391993 2.8327999
0.60969168 0.84225494 2.8330333
0.6299237 0.84639692 2.8340313
0.65062875 0.84623504 2.8353126
0.66812998 0.84438664 2.8333333
0.69450891 0.84507442 2.8333557
0.70837557 0.84317452 2.8316667
0.73168504 0.84627295 2.83254
0.75025666 0.84493333 2.8316667
0.77059275 0.8456322 2.8318052
0.79220337 0.84552413 2.8273001
0.81193268 0.84473675 2.8302867
0.83079463 0.84422123 2.8288398
0.85096329 0.84389752 2.8310583
0.86857063 0.84320128 2.8326707
0.88934499 0.84496099 2.8331299
0.90859878 0.84444743 2.8280437
0.9290958 0.84531087 2.8266582
0.94925463 0.84393173 2.8288238
0.97063142 0.84505135 2.8283665
0.99009287 0.84460068 2.8297286
1.0121388 0.84354895 2.8274887
1.0313751 0.84604251 2.828125
1.0502653 0.84395838 2.8280654
1.0694001 0.84379935 2.8292935
1.090135 0.84497249 2.8285451
1.11045 0.84801245 2.8265753
1.1298136 0.84479773 2.8277321
1.1514039 0.84676796 2.8261881
1.1714751 0.84569007 2.825675
1.1890142 0.84396678 2.8263524
1.2103236 0.84699905 2.8256145
1.2303799 0.8467887 2.8258679
1.250931 0.84736782 2.8257415
1.2701129 0.84757161 2.8258357
1.2906033 0.84620923 2.8258033
1.3101927 0.84577012 2.825392
1.3307887 0.84601045 2.8259816
1.3500886 0.84829652 2.8245845
1.3690273 0.85183722 2.823709
1.3895 0.8578167 2.8238001
0.59118873 0.86760879 2.8316748
0.60994691 0.87209159 2.8317695
0.62706715 0.87538004 2.8330426
0.65003169 0.8711741 2.8315747
0.67009497 0.86987001 2.8315749
0.69083565 0.87038714 2.8299429
0.71035659 0.87070197 2.82956
0.72935325 0.87288064 2.8311069
0.74788278 0.8711918 2.8333364
0.76916456 0.87184048 2.8299699
0.79160225 0.87093312 2.8278461
0.81058115 0.87210107 2.8284557
0.83088702 0.87125903 2.8286901
0.84897947 0.87026644 2.8288352
0.87120235 0.87313533 2.8286526
0.89006203 0.87100637 2.8293161
0.91121221 0.8700788 2.8295333
0.93059045 0.8701244 2.8292129
0.95057416 0.8701961 2.8267334
0.97046214 0.87020439 2.8272998
0.98829335 0.86939049 2.8240433
1.0094893 0.87251967 2.8273785
1.0306699 0.86935252 2.8257098
1.0492159 0.87155634 2.8257079
1.0702243 0.87036455 2.826436
1.0911953 0.87121779 2.8255866
1.1094179 0.86866146 2.8260324
1.1299435 0.87120479 2.8256478
1.1502607 0.87068719 2.8256679
1.1690917 0.86945218 2.8247914
1.190275 0.87172174 2.826782
1.2109777 0.87053901 2.8261197
1.2280624 0.86951846 2.8257718
1.2499967 0.87156838 2.8244419
1.2707027 0.86894512 2.8276224
1.2903966 0.86879712 2.8257251
1.3095857 0.86912996 2.824825
1.3303429 0.86884409 2.8248918
1.3500061 0.86889273 2.826097
1.370224 0.86842591 2.8260839
1.3904204 0.86834741 2.8263531
1.4102833 0.86886466 2.8273895
1.4273889 0.86965108 2.8302889
0.83359998 0.88069499 2.8279748
0.60324001 0.83982003 2.8412001
0.59928 0.84244502 2.8439498
0.63255 0.84785002 2.8408999
0.64069998 0.84373999 2.84145
0.74212003 0.84674001 2.8399999
1.1059999 0.85971999 2.8519001
0.59042001 0.87414247 2.8571501
0.60126495 0.86657 2.8582501
0.63155669 0.87353331 2.8587999
0.65336996 0.8690567 2.8572667
0.67189002 0.87155002 2.8494003
0.69308001 0.87274504 2.8587499
0.71566141 0.86987144 2.8568146
0.73381799 0.87428206 2.8561199
0.75119114 0.86877447 2.8541996
0.76696998 0.87181503 2.8573501
0.78859425 0.86766285 2.854543
0.81043088 0.87037557 2.8557727
0.82888007 0.86967891 2.8562777
0.85128003 0.87098551 2.8549602
0.87116241 0.865955 2.8577499
0.89082491 0.87202579 2.8547142
0.91060722 0.87033951 2.8549664
0.93050331 0.86964059 2.8549223
0.95249504 0.86768055 2.854728
0.9717716 0.87007689 2.8530767
0.98670608 0.86785889 2.854867
1.0071 0.86805993 2.8553371
1.0332112 0.8689177 2.8525112
1.0520799 0.87125194 2.8521266
1.0667348 0.86803561 2.8528826
1.0891819 0.86929494 2.8536229
1.108632 0.86735761 2.8540041
1.1306902 0.86673105 2.85182
1.1494368 0.86688101 2.8529158
1.1696042 0.86951089 2.8512914
1.1889138 0.86836892 2.8502104
1.2097148 0.86740148 2.8518479
1.2292725 0.86752552 2.8504515
1.2506481 0.86805886 2.850868
1.2720193 0.86738932 2.8499424
1.2901145 0.86760026 2.8513088
1.3110243 0.86772734 2.8498056
1.3298285 0.86703116 2.8512139
1.3504616 0.86705005 2.8500121
1.3687998 0.86728412 2.8498333
1.3900251 0.86705083 2.8496447
1.4097542 0.86708313 2.8495913
1.4310908 0.8663972 2.8503361
1.4483216 0.86844313 2.8508699
1.4655 0.86945403 2.85309
0.7184267 0.88379335 2.8585665
0.59048176 0.87135464 2.8649182
0.61248332 0.86824995 2.862067
0.63407892 0.87229115 2.8625889
0.64394498 0.86627996 2.8631999
0.66238999 0.87374997 2.8601
0.68827778 0.87235111 2.8629112
0.7121067 0.87147665 2.8613665
0.73983502 0.870785 2.8642499
0.74296999 0.86905503 2.8643498
0.77127856 0.87135285 2.8632283
0.78747827 0.86899167 2.8613331
0.81636 0.86756504 2.8606501
0.84884501 0.86705005 2.8611002
0.91597497 0.87479502 2.8604
0.93018001 0.87115002 2.8624001
0.94580001 0.87260002 2.8608
0.98396665 0.8714233 2.8619335
1.0074999 0.86952507 2.8645751
1.0323666 0.86674666 2.8681333
1.0517 0.87155497 2.8607001
1.0848999 0.86955333 2.8640335
1.1140667 0.86763 2.8662999
1.1287545 0.86819094 2.8632181
1.1502333 0.87082332 2.8620665
1.1702499 0.86923003 2.8614001
1.1897668 0.86825007 2.863117
1.2048334 0.86727667 2.8624666
1.2265334 0.86739665 2.8634002
1.2575001 0.86690331 2.8614666
1.2689334 0.86750668 2.8624668
1.304 0.86654496 2.8622499
1.3303001 0.86848998 2.8608
1.3485 0.86916 2.8617001
1.3689001 0.86521 2.8635499
1.3845501 0.867935 2.8601499
1.4106833 0.8659417 2.8623002
1.4265 0.86688 2.8619001
1.4545 0.86198497 2.8662
1.4645749 0.86508 2.8629
0.67984003 0.90614003 2.9135001
0.68496001 0.912705 2.9131749
0.68466997 0.85848999 2.9526999
0.69016999 0.86701572 2.9537861
0.69906998 0.88395 2.9549
0.69578832 0.87000841 2.9619999
