# .PCD v0.7 - Point Cloud Data file format
VERSION 0.7
FIELDS x y z
SIZE 4 4 4
TYPE F F F
COUNT 1 1 1
WIDTH 278
HEIGHT 1
VIEWPOINT 0 0 0 1 0 0 0
POINTS 278
DATA ascii
0.48069 1.281 1.5396
0.48895001 1.3092999 1.5379
0.478255 1.3448501 1.5381
0.47782999 1.3722 1.539125
0.47742665 1.3877667 1.53965
0.47806665 1.4473667 1.5382
0.47585499 1.4913249 1.5396
0.47764 1.5668665 1.5389333
0.47626001 1.5802 1.5393
0.47575501 1.4087 1.5402501
0.47827202 1.4493802 1.5408601
0.48089001 1.4658999 1.541925
0.4779945 1.509811 1.540511
0.48253 1.5036 1.5408
0.474545 1.5303251 1.5409751
0.47487 1.55575 1.5419
0.47673002 1.5675001 1.5424666
0.45554999 1.599 1.6188
0.45263499 1.5984 1.7184501
0.47635999 1.6003 1.7032
0.4648875 1.59835 1.7925
0.45807001 1.5969 1.8377
0.46882001 1.598 1.846
0.45346999 1.59675 1.8705001
0.46047002 1.59735 1.87725
0.45669666 1.5968333 1.9150333
0.42717999 1.5935 1.939
0.47194999 1.598 1.9284
0.43029666 1.5936333 1.9431334
0.42664999 1.5933 1.9784
0.45997 1.5964 1.9626
0.46952999 1.6004 2.0383999
0.46683002 1.5993198 2.0455599
0.42554 1.5994333 2.0717335
0.46950331 1.6005334 2.0700667
0.45635 1.5999 2.0895
0.44817001 1.5997 2.1138999
0.46474499 1.5991001 2.11165
0.44974554 1.6091757 2.1102819
0.41731 1.6328667 2.1032
0.42209285 1.6281573 2.1043429
0.45085859 1.6305256 2.1109514
0.4174425 1.6474501 2.1043999
0.421435 1.644425 2.104425
0.4521032 1.650152 2.1123278
0.45124218 1.6693286 2.1122463
0.4519304 1.6897796 2.1132433
0.41769001 1.7034 2.1048
0.45148334 1.7108084 2.1127753
0.41927499 1.7368 2.1055501
0.45197868 1.7297916 2.1123459
0.45205438 1.749472 2.112556
0.41506001 1.7607 2.1071999
0.45087066 1.7697287 2.1129143
0.40338001 1.7940334 2.1101668
0.45142514 1.7911149 2.1139369
0.45150554 1.8097963 2.1138408
0.45175609 1.8283479 2.1137002
0.45058998 1.8489599 2.1129758
0.45159867 1.8705544 2.1138637
0.41854501 1.8991499 2.1149499
0.45047826 1.8901725 2.1143723
0.45124164 1.90975 2.1144876
0.40310001 1.9395 2.1118
0.45091778 1.9311556 2.1136944
0.45110172 1.9505887 2.1138611
0.39831665 1.9697332 2.1131334
0.40029001 1.9655 2.1133001
0.44972464 1.969489 2.1144431
0.44994298 1.9907452 2.1147449
0.45108169 2.0107391 2.1149168
0.3878617 2.0318749 2.1147501
0.45103574 2.0295162 2.1159737
0.45153067 2.0494311 2.1154625
0.38905501 2.0680997 2.1150835
0.45101866 2.0698199 2.1151597
0.3861917 2.0887167 2.11535
0.45141 2.0898693 2.1158228
0.38629663 2.1120777 2.1162443
0.41606 2.1001 2.1183
0.42379498 2.1104999 2.1170502
0.45048672 2.1103945 2.1153445
0.4132967 2.1336167 2.1125832
0.42713001 2.1385 2.1134
0.45054251 2.13079 2.1162448
0.38447666 2.1520224 2.1093664
0.40964499 2.1505001 2.111625
0.43018332 2.1515334 2.1118667
0.45025054 2.1487498 2.1158004
0.38485646 2.1700644 2.1105285
0.41332 2.1719999 2.1135001
0.43491 2.1602001 2.1125
0.44997245 2.1691251 2.1148622
0.40426001 2.1873002 2.1148221
0.45112753 2.1890666 2.1155584
0.45096999 1.5994 2.1208999
0.47152999 1.5987999 2.1255999
0.43782333 1.6092333 2.1394665
0.44967344 1.6096568 2.1284735
0.46814999 1.6 2.1396
0.43975002 1.6222 2.1394501
0.4517909 1.6300091 2.1278574
0.45284468 1.6501497 2.1277537
0.45184961 1.6698104 2.1285002
0.45145935 1.6898434 2.1291831
0.43990999 1.7086 2.1384001
0.45227128 1.7096902 2.1276419
0.45191967 1.7300059 2.1284175
0.43853 1.7445 2.1398001
0.45225373 1.7485297 2.1281741
0.45135269 1.7699485 2.1298637
0.45201725 1.790769 2.1288588
0.45180604 1.8107557 2.1289518
0.45253235 1.8304182 2.1279058
0.45256791 1.8503413 2.1293559
0.45177174 1.869853 2.1293237
0.45179531 1.8901217 2.1298313
0.45286345 1.9107742 2.1291432
0.45287392 1.9301054 2.1291304
0.45269665 1.9504398 2.1281831
0.45218039 1.9702352 2.1294734
0.45173109 1.9897919 2.1292622
0.45132807 2.0090358 2.1295996
0.45137322 2.030113 2.1309419
0.452068 2.0485344 2.1290088
0.38825199 2.0732999 2.1213002
0.45188966 2.0702641 2.129072
0.38931999 2.0871398 2.1207001
0.45229 2.089721 2.1288135
0.39065 2.1148 2.1201999
0.45279455 2.1089997 2.1291542
0.4523809 2.1295831 2.1309319
0.45214975 2.1512003 2.1307559
0.45171666 2.1708214 2.1298261
0.45143947 2.1900971 2.1292973
0.42624 1.59885 2.14955
0.4484733 1.5996 2.1487665
0.41037667 1.6103667 2.1575334
0.42915601 1.6089399 2.1466498
0.41446623 1.631675 2.153625
0.429892 1.6312199 2.1451001
0.41077921 1.6472615 2.1550922
0.42386398 1.6530399 2.1475999
0.4092989 1.6704779 2.1547887
0.42220333 1.6643333 2.1487668
0.41008997 1.6884667 2.1551168
0.42194 1.6883 2.1477001
0.41005 1.708282 2.1555181
0.42998996 1.7079334 2.1445
0.40765199 1.7305701 2.1566701
0.43034163 1.7286 2.1451833
0.41214928 1.7484788 2.1548285
0.42936999 1.7512 2.1451001
0.41114748 1.76985 2.1557751
0.42918 1.7733001 2.1461999
0.41391498 1.7971499 2.1550498
0.41373911 1.8077275 2.1547275
0.42687196 1.8086401 2.14816
0.44490999 1.80905 2.1405501
0.41125569 1.8278284 2.1566858
0.42498499 1.8252749 2.1480625
0.410485 1.8555501 2.1578
0.42887363 1.8489273 2.1474726
0.44165 1.8432 2.1424
0.41441458 1.8687545 2.1559091
0.43213999 1.870875 2.1464248
0.4115586 1.8893143 2.1586285
0.42874375 1.8951625 2.1477876
0.4165557 1.9079571 2.1553428
0.42251 1.9108 2.1529
0.43153602 1.93092 2.14606
0.44014001 1.9226 2.1415
0.41667333 1.9515333 2.1552999
0.43432602 1.9509602 2.14536
0.449745 1.9474499 2.1401501
0.41172859 1.9701999 2.1573999
0.42869499 1.9707875 2.1481252
0.45187664 1.9696666 2.1404333
0.41269889 1.9892668 2.1573668
0.42643604 1.98804 2.1491599
0.45116001 1.9816 2.141
0.41428855 2.0065286 2.1566284
0.42613503 2.0130501 2.151525
0.445775 2.007925 2.1421001
0.414639 2.02981 2.15748
0.42017999 2.0281 2.1533999
0.41705856 2.0485141 2.1559284
0.43052331 2.0570667 2.1488333
0.44434667 2.0423334 2.1426334
0.41800499 2.0722833 2.1553667
0.42273998 2.0645001 2.1539667
0.44681802 2.0710998 2.1411402
0.41619569 2.0891571 2.1566286
0.42537999 2.09372 2.1505599
0.45116252 2.088675 2.1407251
0.41375598 2.1120799 2.15764
0.4260433 2.1094832 2.1512668
0.44775248 2.1131001 2.1422999
0.414828 2.1321599 2.1584401
0.42265001 2.1278 2.1522999
0.44614249 2.1366501 2.142925
0.41499332 2.1515834 2.1586499
0.42873502 2.1465499 2.1515501
0.44894001 2.1485999 2.1425333
0.41464201 2.1708999 2.1593797
0.43434751 2.1720874 2.1486874
0.44788668 2.1743333 2.1424334
0.41852331 2.1883001 2.1590998
0.4284167 2.1866333 2.1535499
0.44992569 2.1915855 2.1406286
0.40821999 1.5992 2.16365
0.42904001 1.598 2.1761
0.45188001 1.5978 2.1732001
0.421855 1.6001501 2.1721001
0.40643001 1.6208 2.1628001
0.40322 1.6533 2.1607001
0.402785 1.66485 2.1612
0.40182 1.7072001 2.1628001
0.40100002 1.7518001 2.1624498
0.40261251 1.7669251 2.16115
0.40303856 1.7903286 2.1612999
0.40303999 1.80405 2.1617498
0.40249401 1.82976 2.16308
0.39664146 1.8524427 2.167357
0.40167999 1.8445749 2.1638749
0.39183083 1.8698918 2.1705334
0.40458 1.870225 2.1629999
0.40017 1.8822 2.165
0.38939202 1.9080302 2.1721399
0.40375838 1.9111667 2.1634333
0.40534145 1.9293286 2.1624856
0.40226501 1.9542501 2.16295
0.39442402 1.9693499 2.1701899
0.40475249 1.966 2.162725
0.39148501 1.9872929 2.1718929
0.403245 1.9895251 2.1638999
0.38654003 2.0064497 2.1748667
0.40589666 2.0064833 2.1637499
0.38847998 2.0382335 2.1748002
0.40479997 2.0279334 2.1647332
0.39000145 2.0521212 2.173943
0.40842 2.0513856 2.1619
0.39073429 2.0716929 2.1736858
0.40819201 2.0701101 2.1626501
0.38801545 2.0916998 2.1754546
0.40689301 2.09061 2.16398
0.39100859 2.1086142 2.1734288
0.40726092 2.1097274 2.163727
0.37882 2.12515 2.178
0.38683504 2.132175 2.17535
0.40683559 2.131289 2.1650667
0.39152431 2.1511858 2.1735857
0.40559 2.1489701 2.1648798
0.3914957 2.1688716 2.1748714
0.4064 2.1700251 2.1651502
0.39186224 2.1897442 2.1756999
0.40042001 2.1896999 2.1710999
0.46221 1.5939 2.1963501
0.38361999 1.9860001 2.1802499
0.38068497 2.0425501 2.1828499
0.38157001 2.0708001 2.1835001
0.38109499 2.0925999 2.1803749
0.38324249 2.1152501 2.1805749
0.38228568 2.1308572 2.1813142
0.38249001 2.1564 2.1821001
0.37409398 2.1693399 2.18694
0.38245001 2.1756001 2.1826999
0.37442797 2.1869597 2.1882401
0.38289332 2.1893501 2.1831
0.40350333 1.591 2.2113667
0.43928 1.5923001 2.2142
0.41012001 1.591 2.2202001
0.42333001 1.5913 2.2344999
0.45003 1.5927501 2.223
0.41269001 1.5907 2.2593999
0.42879 1.59085 2.2467
0.4486025 1.5928 2.2528
0.41508999 1.5907 2.26265
