# .PCD v0.7 - Point Cloud Data file format
VERSION 0.7
FIELDS x y z
SIZE 4 4 4
TYPE F F F
COUNT 1 1 1
WIDTH 173
HEIGHT 1
VIEWPOINT 0 0 0 1 0 0 0
POINTS 173
DATA ascii
0.14910333 2.2278666 1.1293
0.16216999 2.22805 1.12675
0.10956333 2.2523665 1.1271667
0.13013667 2.2554667 1.1286
0.039821997 2.2755499 1.1291499
0.047601499 2.27895 1.1291499
0.089427605 2.2744203 1.12858
0.11403201 2.2718801 1.1287199
0.13433716 2.2711573 1.1287571
0.16917999 2.2650001 1.1290667
0.055523001 2.2802999 1.1291
0.063234493 2.2902 1.13165
0.088708997 2.2832668 1.1291667
0.1023 2.2936502 1.12895
0.151925 2.2842999 1.12865
0.036108248 2.3152001 1.1302249
0.051759999 2.3022001 1.1289001
0.070187002 2.3176999 1.13
0.1055475 2.3025 1.128475
0.12772749 2.3047752 1.12745
0.148535 2.3153501 1.1294
0.17172001 2.3125 1.1293668
0.052310999 2.3260999 1.1299
0.077771001 2.3394001 1.1282001
0.0871365 2.32865 1.1293
0.11397666 2.3324001 1.1291332
0.14945333 2.3376 1.1327333
0.173795 2.3312166 1.1321667
0.069961995 2.3447499 1.1285501
0.094644003 2.3505499 1.1328501
0.10657667 2.3511333 1.133
0.121535 2.34115 1.1316
0.15219 2.3419001 1.1337
0.16452 2.3543999 1.131
0.050637335 2.3757167 1.1371334
0.061225001 2.3689001 1.1363
0.084774002 2.3681002 1.1324
0.10411251 2.3757501 1.1319749
0.12865001 2.3724999 1.13255
0.14633 2.3714802 1.1308199
0.16407 2.3673999 1.1314
0.049266335 2.3916502 1.1373333
0.067679405 2.3902001 1.13478
0.098221004 2.3958666 1.1316334
0.10912714 2.3891284 1.1321571
0.134875 2.3864002 1.130875
0.14139999 2.3973 1.1303999
0.050960004 2.41115 1.1377167
0.069939248 2.4113998 1.1346
0.099334002 2.4033 1.1322
0.10982 2.401 1.1305
0.12933999 2.4059 1.1294501
0.15680332 2.4166 1.1311334
0.17167 2.4179001 1.131
0.052789629 2.43345 1.1369375
0.073700003 2.4261 1.1334333
0.085845426 2.4317856 1.1313143
0.11445 2.4347 1.1284
0.14596666 2.4231331 1.1311666
0.052020911 2.4507456 1.1370182
0.0729376 2.4464202 1.1345999
0.094155505 2.4535 1.13195
0.14712334 2.4424999 1.1307
0.162062 2.4473798 1.12924
0.049644604 2.4672198 1.13722
0.065537803 2.4749401 1.13406
0.095581003 2.4604001 1.1332999
0.10243 2.4675999 1.1308
0.13429333 2.4686666 1.13095
0.14745 2.4750667 1.1305333
0.17032251 2.4782 1.13175
0.049228285 2.4868715 1.1380428
0.064823493 2.4916499 1.134975
0.083330996 2.4974 1.1311001
0.10745 2.4865999 1.133
0.13806501 2.4867501 1.13275
0.14057334 2.4851668 1.1318667
0.17689 2.4881501 1.1324251
0.04937638 2.5093 1.1382625
0.076568 2.5055666 1.1340333
0.087499 2.5092168 1.13315
0.118815 2.5156999 1.1327
0.13625 2.5037 1.1328
0.1449625 2.5088 1.133875
0.054915857 2.5256429 1.1371143
0.061129 2.5339668 1.1355335
0.09108986 2.5282714 1.1348429
0.10426334 2.5255001 1.1335665
0.16723999 2.5386 1.1365
0.18764251 2.5271749 1.134925
0.050319001 2.5402 1.1374
0.065741196 2.5528598 1.1337
0.092661001 2.5423 1.1332
0.030294999 2.5716 1.1329501
0.031514753 2.378875 1.14915
0.044297501 2.3783 1.1459501
0.047465779 2.3903553 1.1504296
0.04699 2.4090562 1.1504174
0.047150042 2.4291437 1.1485173
0.047517903 2.44947 1.1486351
0.047842689 2.4693317 1.1500473
0.046395283 2.4891047 1.1524477
0.047019653 2.5100219 1.1506782
0.046594914 2.5300999 1.1495695
0.046943199 2.54316 1.1473
0.0447875 2.3794 1.17795
0.047526482 2.3891666 1.1706741
0.04746937 2.411411 1.1692704
0.047805127 2.4303625 1.1700542
0.047756329 2.4501331 1.1688374
0.048052236 2.4710002 1.1680903
0.047212787 2.4902999 1.1699317
0.046506848 2.5100148 1.169665
0.047075365 2.5238366 1.1691092
0.047054 2.5402 1.16
0.043476667 2.3781998 1.1964666
0.047235303 2.3888695 1.1887045
0.048504498 2.409421 1.190975
0.047405716 2.4299281 1.191344
0.04740696 2.450274 1.1898434
0.047609288 2.4694917 1.1890167
0.047692955 2.4894683 1.1882229
0.047637001 2.5068166 1.18695
0.047626752 2.3725877 1.21715
0.047304776 2.390018 1.209937
0.046696298 2.4105499 1.2104501
0.047850408 2.4300821 1.2091771
0.048335545 2.4493496 1.2106731
0.048563398 2.4699054 1.2101052
0.048375428 2.4870498 1.2058071
0.046124123 2.3543999 1.2340876
0.046739634 2.3685474 1.2306315
0.046712998 2.3908131 1.2314738
0.048082776 2.4111593 1.2312001
0.047723647 2.4297299 1.2297087
0.047473278 2.4496839 1.2297201
0.046594504 2.4674213 1.2261571
0.039048001 2.3297002 1.2545334
0.045224164 2.3370168 1.2546834
0.04637792 2.350852 1.250576
0.046974935 2.3700962 1.2497786
0.047812279 2.3900669 1.2493809
0.048949946 2.4084175 1.2498118
0.048008896 2.4302049 1.2500999
0.046334129 2.4482501 1.2472312
0.024023 2.3188 1.2785
0.028790876 2.3255751 1.2731124
0.046349 2.3316355 1.2691412
0.047471918 2.3495476 1.271174
0.048002813 2.3706732 1.2708037
0.048726715 2.3905571 1.2695713
0.047846589 2.4098003 1.269011
0.047926333 2.426589 1.2652001
0.016868001 2.2940333 1.2970334
0.025673 2.3094666 1.2885667
0.028596001 2.3329 1.2823
0.041644 2.3375001 1.2853
0.012629 2.3469999 1.2912
0.03496933 2.3505332 1.2973666
0.04697061 2.3502393 1.2883043
0.047447585 2.3701227 1.2905636
0.047535483 2.3886998 1.2906439
0.047353417 2.4066916 1.28635
0.033111837 2.2768333 1.3154666
0.031641249 2.2889252 1.309375
0.0261785 2.35465 1.3017
0.04439725 2.357625 1.30375
0.014864 2.36815 1.3176501
0.047317483 2.3701601 1.30916
0.046545248 2.3866165 1.306725
0.032286 2.2568333 1.3388666
0.032526668 2.2673166 1.3269751
0.014543332 2.3132501 1.3739166
