# .PCD v0.7 - Point Cloud Data file format
VERSION 0.7
FIELDS x y z
SIZE 4 4 4
TYPE F F F
COUNT 1 1 1
WIDTH 66
HEIGHT 1
VIEWPOINT 0 0 0 1 0 0 0
POINTS 66
DATA ascii
0.46673247 2.2147875 1.1294249
0.47117665 2.2257168 1.1296333
0.46497276 2.2501454 1.1291274
0.47264716 2.267014 1.1291429
0.47310224 2.2879667 1.1295444
0.47180092 2.309782 1.1301183
0.46740666 2.3318999 1.1293167
0.46977222 2.3499999 1.1291556
0.46618667 2.3750334 1.1295333
0.46757457 2.3907363 1.1293454
0.46503597 2.4088602 1.1294
0.46996862 2.4293573 1.1300356
0.47671002 2.4412498 1.12975
0.46768501 2.4751 1.12885
0.4519746 2.4908819 1.1287454
0.47220543 2.4901636 1.1282091
0.45137599 2.5096936 1.1294466
0.47394332 2.5151334 1.1302333
0.44966125 2.5312126 1.131175
0.46801752 2.5291624 1.1304874
0.451049 2.5503001 1.13147
0.47089183 2.5525274 1.1309818
0.44719896 2.57126 1.13111
0.47481 2.5778999 1.1316
0.45489752 2.5918498 1.131725
0.47161999 2.5863402 1.13184
0.450416 2.6060002 1.1315
0.46895126 2.6122251 1.1319625
0.45192716 2.6342714 1.1317142
0.47362664 2.6267002 1.1317
0.45670334 2.648 1.1324667
0.469845 2.6498251 1.1317
0.45414114 2.6689775 1.1312556
0.47120333 2.6670001 1.131
0.45222142 2.687 1.1326429
0.46961445 2.6880112 1.1327778
0.44759625 2.7116375 1.1324251
0.47438398 2.7079802 1.1330001
0.45071623 2.7288625 1.13315
0.4709025 2.7269876 1.1335
0.45807606 2.7473598 1.1334801
0.47414199 2.7528398 1.1326001
0.45320001 2.7772999 1.1341
0.4764775 2.7688751 1.134025
0.43651667 2.7948999 1.1343001
0.443555 2.7983749 1.13305
0.47109753 2.7969749 1.1341751
0.44267333 2.8141668 1.1338
0.47298503 2.8102748 1.1346251
0.44728252 2.8273249 1.1359251
0.46683332 2.8311336 1.1348
0.43212497 2.8508751 1.1355667
0.45836332 2.8514335 1.1347333
0.47060668 2.8483 1.1356111
0.431265 2.8680501 1.13695
0.45231086 2.8684545 1.1372273
0.46809998 2.8744667 1.1370667
0.42811501 2.88995 1.1377001
0.45420668 2.8850334 1.1385001
0.47033226 2.8855333 1.1371555
0.43104857 2.9088428 1.1382715
0.45938 2.9159 1.1375
0.46988913 2.9101455 1.137391
0.44600001 2.9216001 1.137
0.46033001 2.9215 1.1381
0.45084 2.8848 1.1413
