# .PCD v0.7 - Point Cloud Data file format
VERSION 0.7
FIELDS x y z
SIZE 4 4 4
TYPE F F F
COUNT 1 1 1
WIDTH 136
HEIGHT 1
VIEWPOINT 0 0 0 1 0 0 0
POINTS 136
DATA ascii
0.026445 2.9997001 1.1144
0.025015002 3.0076332 1.1142666
0.023334501 3.0294001 1.115175
0.016071167 3.0511999 1.1096168
0.015573 3.0613 1.1135
0.22836167 3.1905 1.1171499
0.20682751 2.8529501 1.1380501
0.13165 2.8798001 1.1364
0.15262 2.8697 1.1378
0.16482 2.8750501 1.13715
0.1816 2.8606999 1.1371
0.20395 2.8625 1.1397001
0.17613 2.89505 1.1366999
0.19204666 2.8970668 1.1373
0.21365 2.8978 1.1353
0.056472 2.918 1.13915
0.093235001 2.9064999 1.1387501
0.11917 2.9122 1.1385
0.13404401 2.9151797 1.13934
0.15955 2.9065001 1.1367
0.1731275 2.9089999 1.13805
0.19285499 2.9108748 1.138075
0.21170335 2.9111998 1.1389
0.057574 2.9231 1.1397001
0.015851 2.9584999 1.1314
0.013574141 2.9664426 1.1313714
0.0097621996 2.9826498 1.1329
0.023527334 2.9957333 1.1372666
0.018433999 3.0264001 1.13345
0.097028002 3.0938001 1.1341
0.104065 3.0948749 1.136225
0.10704 3.1026001 1.1351
0.17287 3.1289999 1.1312
0.172932 3.1765599 1.1326001
0.171215 3.184 1.12825
0.20635 3.1902001 1.13055
0.19062333 3.2024667 1.138
0.207333 3.2102199 1.13316
0.23409 3.2035 1.1266
0.21233666 3.2266331 1.1338
0.0073974002 2.8949001 1.1433001
0.071233667 2.8859665 1.1414
0.0937915 2.90695 1.1401
0.12520999 2.9189999 1.14055
0.006267258 2.9321399 1.1496999
0.026686 2.9329 1.1407
0.060604498 2.9237499 1.1406
0.0091071492 2.94856 1.1507
0.027285501 2.9465001 1.14135
0.0090101827 2.9676497 1.1487167
0.083747998 2.9697001 1.1442
0.0075982916 2.9891081 1.1493083
0.022724999 2.9912 1.1418
0.0066971933 3.0107198 1.1495399
0.0068570003 3.029608 1.1519916
0.081603996 3.0352001 1.1413
0.0077393907 3.050173 1.1526909
0.078558996 3.0407 1.1454
0.080784 3.0418999 1.1461
0.0040763123 3.0661125 1.1509125
0.066630006 3.0718999 1.1431
0.010446033 3.1026332 1.1424667
0.094100997 3.118 1.1435
0.18129 3.1118498 1.14645
0.015969999 3.1447999 1.1432
0.167796 3.1508801 1.1447001
0.17707001 3.1784 1.1411
0.17923 3.1817999 1.1418999
0.19598857 3.2057426 1.1432428
0.20892167 3.2115166 1.1535667
0.0062059802 2.9327135 1.1708999
0.0078467624 2.9500289 1.1697714
0.0084194848 2.9701316 1.168321
0.0083147325 2.9905055 1.1690667
0.0077551664 3.0089667 1.17066
0.0080026248 3.0278125 1.1707374
0.0076067052 3.0497835 1.169661
0.0072713494 3.06305 1.1702833
0.18503 3.1443 1.1799999
0.1934 3.1689999 1.1789
0.20344 3.1975 1.1785001
0.19937 3.2094998 1.17115
0.21127334 3.2090998 1.1710111
0.2207 3.2054999 1.1619
0.0052429857 2.9509141 1.1816714
0.0053038001 2.9672251 1.1819
0.0072757802 2.9885399 1.1811199
0.0055304198 3.0092602 1.18288
0.0056480002 3.0283999 1.1812
0.0064862249 3.0514998 1.182325
0.0053659328 3.0634334 1.1816667
0.17922001 3.1321502 1.18455
0.18572332 3.1368999 1.1873168
0.19089589 3.1502469 1.186106
0.19272168 3.169383 1.1876167
0.18793307 3.1928389 1.1881385
0.18646 3.2009001 1.1892
0.21376 3.21155 1.1809499
0.133646 3.08606 1.2221
0.19018 3.0267 1.2473
0.20971 3.0998001 1.2463
0.18029 3.1266 1.2508
0.18851165 3.1174831 1.2721334
0.19668999 3.1334 1.2625
0.17417665 3.0469 1.2904
0.171195 3.118 1.29695
0.17894 3.1226501 1.2978001
0.18494 3.1289001 1.2844
0.18567999 3.1143334 1.3070333
0.1662 3.1392667 1.3156999
0.18718334 3.1357667 1.3116667
0.17204 3.1428001 1.3164999
0.181605 3.1493499 1.3145
0.171105 3.1278501 1.33085
0.169275 3.1410499 1.32215
0.188665 3.1493001 1.3415999
0.20754799 3.1493599 1.35118
0.20409 3.1380501 1.3678501
0.19804001 3.1482 1.3606501
0.20915776 3.1484778 1.3719778
0.20959668 3.1175663 1.3980666
0.20825 3.14605 1.39605
0.17211001 3.1197 1.4182
0.17115501 3.1208501 1.415
0.22609401 3.1426201 1.40924
0.21838 3.1352 1.4205
0.22608501 3.1314502 1.434
0.21935 3.1503 1.4275
0.22261 3.148 1.4279
0.19701333 3.1538334 1.4418334
0.20491999 3.1510251 1.4520251
0.22071001 3.1522999 1.4463
0.19373 3.1631 1.4694999
0.049481999 3.2164333 1.4811333
0.12567668 3.2106335 1.4848
0.043163668 3.2502 1.4861001
