# .PCD v0.7 - Point Cloud Data file format
VERSION 0.7
FIELDS x y z
SIZE 4 4 4
TYPE F F F
COUNT 1 1 1
WIDTH 500
HEIGHT 1
VIEWPOINT 0 0 0 1 0 0 0
POINTS 500
DATA ascii
2.1866999 1.0595 2.8315001
2.2122998 1.0582 2.8362999
2.1784749 1.0683749 2.8359499
2.1877162 1.0711513 2.8292792
2.212302 1.0708877 2.8300757
2.2216001 1.0696 2.83655
2.1791 1.0899501 2.83325
2.1885886 1.0894269 2.8289618
2.212815 1.0902588 2.8304152
2.2208285 1.0915142 2.8323002
2.1793001 1.1198 2.8352001
2.1889617 1.1098127 2.8289924
2.2134523 1.1101325 2.8284001
2.22104 1.11334 2.83583
2.1792002 1.12295 2.8355
2.1881614 1.1295019 2.8296635
2.2124054 1.1307211 2.8307498
2.220578 1.1301444 2.8335888
2.1895683 1.1502843 2.830102
2.2137465 1.1494906 2.8308272
2.2211819 1.1497 2.8317635
2.1889019 1.1700543 2.8308232
2.2134254 1.1696953 2.8312535
2.2216887 1.169211 2.8358669
2.1903944 1.1904498 2.8318481
2.2131512 1.1903573 2.8318572
2.1901896 1.2114646 2.8313935
2.2129023 1.2110443 2.8312044
2.2213922 1.2114924 2.8344231
2.1903965 1.2298017 2.8307829
2.2142003 1.2291446 2.8321021
2.2223544 1.2293454 2.8340364
2.1911924 1.2491691 2.8309476
2.2149796 1.2494749 2.8311894
2.2232237 1.2500293 2.8327115
2.1904945 1.2698907 2.8310759
2.214081 1.2691604 2.8313117
2.2230036 1.2704654 2.8326921
2.1918898 1.289796 2.8314743
2.2148409 1.2894589 2.8319767
2.2223077 1.2893116 2.8345385
2.1921999 1.3101275 2.8327341
2.2145591 1.3094621 2.83306
2.2224379 1.3113707 2.8329628
2.1920588 1.3298708 2.8339624
2.2149637 1.3301295 2.833123
2.2241862 1.3309691 2.8332725
2.1931963 1.3501129 2.8336277
2.2144439 1.3510031 2.8343532
2.2232256 1.3510852 2.8347478
2.1922941 1.3706207 2.834775
2.2136362 1.3697445 2.8350775
2.2235241 1.3706034 2.8355727
2.1914427 1.3891549 2.8358479
2.2121284 1.3883457 2.8361826
2.224179 1.3886789 2.8372948
2.1930845 1.4090042 2.8359067
2.2133367 1.4094133 2.8356948
2.2239287 1.4101465 2.8371146
2.1938477 1.4297417 2.8351099
2.2128704 1.4310054 2.8363569
2.2248657 1.4306586 2.8370929
2.1932642 1.4504899 2.8348358
2.2110879 1.450597 2.8361938
2.2240851 1.4499911 2.8372855
2.1931341 1.4704503 2.8364885
2.2131259 1.4706743 2.8365262
2.2243361 1.4707088 2.837003
2.1932633 1.4890237 2.8360214
2.210238 1.4897107 2.8371515
2.2242641 1.4887003 2.8373559
2.1947765 1.510579 2.8368819
2.2088003 1.5075434 2.8368912
2.2254515 1.5095838 2.8376069
2.194205 1.529958 2.8369892
2.2100704 1.5314111 2.837081
2.2250669 1.5314109 2.8374
2.1942406 1.5503687 2.8364573
2.2098999 1.551705 2.8371522
2.2251575 1.5501182 2.8371782
2.1947722 1.568938 2.836659
2.208452 1.5695347 2.8375449
2.2261865 1.56884 2.8375769
2.1944761 1.5892761 2.837476
2.2079449 1.5902998 2.8374932
2.2252648 1.5893257 2.8379514
2.1962628 1.6104282 2.8376937
2.2085903 1.6100523 2.8378522
2.2252202 1.6089857 2.838254
2.1959713 1.6281335 2.8375187
2.2062001 1.6291677 2.8381917
2.2258232 1.6307313 2.8378086
2.196085 1.6497667 2.8379517
2.2062705 1.6510924 2.8377292
2.2259355 1.6493355 2.8381128
2.1958814 1.6711001 2.8376875
2.2034841 1.66844 2.8378043
2.2246108 1.6693499 2.8378644
2.1960752 1.6884701 2.8382049
2.204046 1.6897539 2.8381767
2.2240798 1.6890501 2.8388
2.1967285 1.7128 2.8389001
2.206357 1.7083715 2.8392715
2.22825 1.7035501 2.8397999
2.2330999 1.7391 2.8388
2.2046499 1.7485499 2.8397999
2.2308834 1.7487832 2.8392
2.1963332 1.7702667 2.8387668
2.2070751 1.77025 2.8392
2.2304821 1.7709942 2.8387706
2.1989 1.7921 2.8395
2.2060251 1.7880834 2.8390586
2.2296512 1.7885906 2.8380163
2.1979334 1.8092333 2.8395665
2.206408 1.8112922 2.8381717
2.2303777 1.809894 2.8383031
2.1984003 1.8225332 2.8387001
2.2056603 1.8312786 2.8381968
2.2306638 1.8291078 2.8378737
2.1996 1.8487 2.8392999
2.2063003 1.8502157 2.8386734
2.2310359 1.8497607 2.8381712
2.2081778 1.8663112 2.8389444
2.231425 1.86844 2.8383946
2.2338922 1.8882231 2.8389926
2.1768334 1.0496668 2.8513334
2.1976418 1.054275 2.8433335
2.2025199 1.0555401 2.8432801
2.1974213 1.0688287 2.8435428
2.20295 1.0710918 2.8431082
2.1974876 1.0886813 2.8437688
2.2025688 1.0919437 2.843375
2.22105 1.0982 2.8410001
2.1974077 1.1093462 2.8444541
2.2028952 1.1106189 2.843538
2.2225001 1.1125 2.8401
2.19751 1.1274701 2.8450999
2.2025855 1.1288476 2.8435099
2.2218666 1.1276333 2.8434
2.1983848 1.1499768 2.8452382
2.2036827 1.1523529 2.842741
2.1982126 1.1709125 2.8429127
2.2042689 1.1699462 2.8454499
2.2212 1.1742142 2.8467286
2.1935439 1.188725 2.8439436
2.2049668 1.1892375 2.845046
2.2208998 1.1900544 2.8451998
2.1986547 1.2111182 2.8450727
2.2035654 1.2106869 2.8447826
2.2236333 1.2134 2.8425
2.199007 1.2289785 2.8457069
2.2045693 1.2309796 2.8444619
2.2242 1.221 2.8424501
2.1990333 1.2499888 2.8460665
2.2042863 1.250507 2.8459449
2.2256 1.2567 2.8404
2.1960666 1.2678334 2.8435667
2.2044306 1.2703028 2.8466165
2.2253001 1.27255 2.8403001
2.1997335 1.2963667 2.8498333
2.2043066 1.2900501 2.8474972
2.22475 1.28475 2.8425999
2.199475 1.3081501 2.8493252
2.2044816 1.3105565 2.8485408
2.2256999 1.3178 2.8408999
2.19945 1.3248501 2.8445001
2.2049448 1.3301444 2.8505499
2.1848001 1.3508999 2.8404002
2.2052946 1.349125 2.8487995
2.2276001 1.3561 2.8422
2.1839001 1.3778 2.8422
2.2057312 1.3704023 2.8489621
2.2267666 1.3713335 2.8420832
2.1873 1.3889333 2.8426332
2.2058971 1.390764 2.8495834
2.22645 1.3896499 2.842
2.185143 1.4138001 2.8430715
2.2074001 1.4101158 2.8490906
2.2278001 1.4081 2.8411999
2.1878998 1.4310666 2.8411834
2.2070115 1.4286325 2.8511701
2.2271399 1.4247 2.8414199
2.2074149 1.4493248 2.8506255
2.2274749 1.451875 2.841825
2.1858001 1.4795001 2.8427999
2.2077463 1.4700538 2.8508365
2.2279625 1.4698625 2.8422
2.188211 1.4910667 2.842411
2.2080414 1.4894274 2.8504732
2.2277637 1.4933909 2.8426638
2.18767 1.50857 2.8454099
2.2089179 1.51003 2.8494103
2.227989 1.5139222 2.8444221
2.1919599 1.53064 2.84114
2.2085333 1.5301212 2.8502119
2.2270501 1.5264333 2.8409998
2.18922 1.5492799 2.84272
2.2094352 1.5498847 2.8506978
2.2275093 1.5494274 2.8419092
2.1888726 1.5704999 2.8452547
2.2095511 1.5698707 2.8502488
2.2309251 1.569375 2.8408251
2.1907876 1.5924125 2.8427124
2.2099352 1.5897262 2.8506892
2.2283561 1.5908124 2.8428185
2.1909692 1.6088998 2.8424768
2.2094624 1.6104996 2.8502574
2.2282519 1.6096087 2.8423693
2.1911445 1.6305056 2.8433614
2.2105298 1.6297293 2.8503017
2.2289894 1.6314316 2.8420734
2.1929214 1.6489786 2.8424928
2.2109051 1.6490688 2.8501832
2.2297606 1.6502351 2.8423913
2.1943073 1.6699358 2.8423355
2.2120895 1.67015 2.8501432
2.2298973 1.6706558 2.8434968
2.1951602 1.6891334 2.8421066
2.2106113 1.6893712 2.851079
2.2285318 1.6915321 2.8441408
2.1964893 1.7096684 2.8423579
2.2100527 1.7099794 2.8490527
2.2280278 1.7099361 2.8432751
2.1954403 1.7312343 2.8447409
2.2092891 1.7295802 2.8496091
2.2281277 1.7294868 2.8436732
2.1962156 1.7500409 2.8434563
2.2094889 1.7497425 2.850004
2.227736 1.7494951 2.8438742
2.1966577 1.7694809 2.8431768
2.2104793 1.7697252 2.8505859
2.2285254 1.7686872 2.8437989
2.1961968 1.7900614 2.8439193
2.2110996 1.7898524 2.8506513
2.2285333 1.7906598 2.8432281
2.1958141 1.8102095 2.8454669
2.2094793 1.8095115 2.8489962
2.2285533 1.8100573 2.8442509
2.1962948 1.8294525 2.8453
2.211946 1.8289942 2.8518274
2.2280142 1.8321199 2.8448775
2.1974251 1.851505 2.8445098
2.210963 1.8496046 2.8500817
2.2296171 1.8508893 2.8443413
2.1974714 1.868576 2.844538
2.2105532 1.8701955 2.8495612
2.2299061 1.8706769 2.8460538
2.1971078 1.8885231 2.8469379
2.2087991 1.8893842 2.8474278
2.229589 1.8911586 2.8470044
2.1978953 1.9092548 2.8482599
2.2104378 1.9106318 2.8507392
2.2310317 1.9090658 2.8473997
2.1980875 1.92925 2.8492308
2.2084513 1.9299306 2.8490357
2.2309325 1.9299495 2.8488393
2.1983416 1.9489499 2.8495169
2.2092538 1.9493113 2.8496006
2.2307365 1.9501898 2.8496773
2.2400999 1.9509599 2.8536201
2.1982501 1.9693166 2.852217
2.2077351 1.970071 2.8474481
2.2315538 1.9705874 2.8493807
2.1995502 1.9898701 2.84993
2.2091153 1.9905158 2.8470199
2.2320378 1.9897611 2.8478153
2.2411001 1.9919833 2.8557501
2.1990571 2.0094428 2.8494573
2.2094231 2.0097396 2.8480129
2.2312052 2.0097442 2.8478968
2.2407572 2.0112855 2.8500426
2.1997001 2.0225 2.8501
2.2090721 2.0302775 2.8477664
2.2314806 2.0295289 2.848289
2.2409935 2.0300374 2.8494062
2.1998999 2.0541 2.8513999
2.2097654 2.0498655 2.8484015
2.232439 2.049602 2.84848
2.2411571 2.0509715 2.8506856
2.1991749 2.07005 2.855175
2.2089422 2.0698259 2.8486035
2.2337649 2.0690427 2.8489552
2.2420666 2.069375 2.8500004
2.1989999 2.0815501 2.8532
2.2089517 2.0891716 2.8495543
2.2331479 2.0907977 2.8494093
2.242157 2.0897927 2.852093
2.2096472 2.1086669 2.8499384
2.2327726 2.1109982 2.8500795
2.2421281 2.1096714 2.8488474
2.1998 2.1261001 2.8562
2.2096827 2.1293373 2.850172
2.2349195 2.1294696 2.8484416
2.2431998 2.1291401 2.84991
2.2103074 2.1500044 2.8507345
2.2337904 2.1497498 2.8509502
2.2430184 2.1505876 2.8521686
2.2113121 2.1693881 2.8517895
2.234118 2.1702259 2.852067
2.2428663 2.1710794 2.8520622
2.2116489 2.1899047 2.8516605
2.2341945 2.1900332 2.8520558
2.242775 2.1882875 2.852025
2.2109339 2.2097523 2.8522494
2.2352996 2.2110064 2.8520997
2.2437401 2.2109079 2.8536398
2.2120862 2.2301323 2.8517308
2.2340133 2.2294476 2.8519683
2.2442 2.2303152 2.8525963
2.212471 2.2501903 2.8528926
2.2334595 2.2488668 2.8537631
2.244081 2.2492692 2.8525503
2.2117038 2.2698054 2.8527725
2.2334189 2.2700081 2.8540976
2.2447217 2.2714956 2.8534522
2.2118151 2.2893953 2.8536873
2.2323563 2.2895565 2.8550951
2.2447898 2.2897103 2.8545275
2.2136359 2.3094599 2.8549516
2.2316294 2.3097856 2.8543115
2.2437036 2.3095653 2.8550882
2.2130849 2.3305361 2.855186
2.23248 2.3312833 2.8544734
2.2449751 2.3308356 2.8557193
2.2134457 2.3497918 2.8547525
2.2326753 2.3496487 2.8548725
2.2460644 2.3515096 2.8559127
2.2130203 2.369065 2.8549523
2.2301879 2.370919 2.8560469
2.2454917 2.369529 2.8549762
2.2140975 2.3906171 2.8555205
2.2290518 2.3888998 2.8559549
2.2452917 2.389694 2.8552713
2.2140973 2.4091806 2.8549783
2.2296357 2.4107027 2.8562512
2.246012 2.4092765 2.8556697
2.215292 2.4297378 2.8554382
2.2294002 2.4299593 2.8561654
2.2471685 2.4294469 2.8564126
2.2138 2.4495311 2.855217
2.226378 2.4502099 2.8554721
2.2463274 2.4503424 2.8556652
2.2153082 2.4706514 2.8556867
2.2268927 2.4695959 2.855248
2.2463095 2.4695215 2.8549504
2.2183499 2.48035 2.85605
2.233 2.4808998 2.8574667
2.2487166 2.4810333 2.8571336
2.2286 1.4886 2.8766
2.2291501 1.5033 2.86185
2.2316999 1.5630332 2.8715
2.23264 1.6087201 2.8730998
2.2320333 1.6351666 2.8703001
2.18975 1.6928999 2.8654499
2.2348332 1.6984 2.8748
2.2363 1.7187999 2.8798001
2.2118001 1.73375 2.8610001
2.2358999 1.7359 2.8777001
2.1905 1.7588 2.8633001
2.2100999 1.7492 2.8606
2.1905 1.7615 2.8629999
2.2128248 1.771525 2.8607249
2.2358201 1.7664601 2.87134
2.1923666 1.7831331 2.8623667
2.2114501 1.78685 2.86115
2.237 1.7819 2.8787999
2.2135999 1.8090401 2.86145
2.2383499 1.8150001 2.8787498
2.2143888 1.8343444 2.8608775
2.2381201 1.8271399 2.8759201
2.2156818 1.8506546 2.8614273
2.2388573 1.8512 2.8765857
2.1941333 1.8761333 2.8677332
2.2153249 1.8684 2.8617876
2.2390499 1.873625 2.87535
2.1942 1.89505 2.8606
2.214731 1.8881155 2.8617074
2.23158 1.88526 2.8658199
2.2157431 1.9099857 2.8616786
2.2339499 1.906075 2.863075
2.2158334 1.9317583 2.8613331
2.2215664 1.9297667 2.8604
2.2402 1.9366 2.8615999
2.2162144 1.9499192 2.862
2.2217333 1.9514166 2.8609667
2.2400498 1.94205 2.8608499
2.1963999 1.9649334 2.8672333
2.2164247 1.9720167 2.8617334
2.2227333 1.9693165 2.8616502
2.2169356 1.9918143 2.8624072
2.2219555 1.989211 2.862211
2.1981249 2.0036001 2.8631248
2.2179081 2.0097334 2.8631418
2.2229183 2.0101182 2.8617361
2.2174687 2.0313997 2.862725
2.2224708 2.0302823 2.8624823
2.21696 2.0493701 2.8637397
2.222461 2.0479827 2.8624563
2.2415667 2.0438001 2.8631332
2.1988001 2.0692 2.86095
2.2183189 2.0685332 2.8640189
2.2230709 2.0709541 2.8634455
2.2428999 2.0782001 2.8625
2.2155335 2.0894401 2.8635736
2.2237697 2.0891438 2.863961
2.24385 2.0926251 2.8735251
2.2187109 2.1079445 2.8646445
2.2237163 2.109112 2.8644519
2.218678 2.1312778 2.8647556
2.2239959 2.1303041 2.8644707
2.2437665 2.1254332 2.8638999
2.2189417 2.148875 2.8641415
2.2245309 2.1493306 2.8653154
2.2455502 2.1445999 2.8612499
2.1998999 2.1726999 2.8687
2.2129998 2.1721272 2.8647273
2.2246122 2.1704395 2.8649516
2.2105999 2.1866002 2.86075
2.2250967 2.1900651 2.8659794
2.2460334 2.1967666 2.8693666
2.2133799 2.2177398 2.8655
2.2249246 2.2093863 2.8652227
2.2459667 2.2057667 2.8630333
2.2106364 2.2311819 2.8643999
2.2254541 2.2290192 2.8664269
2.2472999 2.2398 2.8604
2.20295 2.2456751 2.863425
2.2257268 2.2509089 2.867161
2.2045 2.2741001 2.8606999
2.2260714 2.2704976 2.8674736
2.2266755 2.2903903 2.8676441
2.2477 2.2976999 2.8634
2.2056 2.3150668 2.8608999
2.2267296 2.3097591 2.8679454
2.2477 2.3010499 2.8614001
2.2049332 2.3260832 2.866683
2.2271564 2.3297877 2.8682709
2.2491 2.3318999 2.8624001
2.2056999 2.3484333 2.8619664
2.2276602 2.35092 2.8692112
2.2507 2.35355 2.8625998
2.20755 2.369575 2.861275
2.227905 2.3690882 2.869324
2.2501502 2.3715751 2.86145
2.2077801 2.3831601 2.8613601
2.2279315 2.389658 2.8712444
2.2075334 2.4068999 2.8614666
2.2292731 2.4096317 2.8711562
2.2512 2.4089999 2.86285
2.2098668 2.4305 2.8624334
2.2297857 2.4295111 2.8706694
2.2523668 2.4348333 2.8620002
2.2107 2.4579999 2.8606
2.2299144 2.4505427 2.8705835
2.2523499 2.4475498 2.8618751
2.2106125 2.4676623 2.8622501
2.2311339 2.4707525 2.8698137
2.2096 2.4835 2.8673
2.2301645 2.4859295 2.8717175
2.2512 2.483 2.8618
2.2278001 1.4066668 2.8893335
2.2335749 1.63205 2.8886499
2.2329199 1.65256 2.8888202
2.2348001 1.6794 2.8862
2.23455 1.6826501 2.8889999
2.2348998 1.7064667 2.8840001
2.2360501 1.727125 2.8805499
2.2354503 1.7438999 2.8822501
2.2370749 1.7718251 2.8813252
2.2365167 1.7887 2.8828001
2.2379 1.825 2.8817999
2.2384 1.8508 2.8801
2.2389667 1.8679 2.8812332
2.2384501 1.8877331 2.8832834
2.2402999 1.8961 2.8861001
2.2397749 1.916625 2.8859251
2.24015 1.9065499 2.8838749
2.23946 1.9235399 2.88782
2.2388 1.9469666 2.8861332
2.2404668 1.9679667 2.8903332
2.2393665 1.9948 2.8959999
2.2419 1.9886 2.8973
2.2407999 2.0271666 2.8958333
2.2421 2.0755 2.8856001
2.2425001 2.1236999 2.8989
2.2532501 2.4758501 2.8910499
2.2248001 1.3612 2.9168
2.2272999 1.4599 2.9105
2.2325001 1.6399 2.9024
2.2325001 1.6418999 2.9017999
2.2389002 1.9419 2.9022501
2.2398 1.96285 2.90905
2.2451 2.119 2.9001
2.2449999 2.1221001 2.9003999
2.2455502 2.1753998 2.9068999
2.2451 2.1887999 2.9088502
2.2458 2.2391 2.9128001
2.24666 2.2480199 2.9075201
2.2485666 2.3095667 2.9145
2.2514501 2.4447498 2.911
