# .PCD v0.7 - Point Cloud Data file format
VERSION 0.7
FIELDS x y z
SIZE 4 4 4
TYPE F F F
COUNT 1 1 1
WIDTH 411
HEIGHT 1
VIEWPOINT 0 0 0 1 0 0 0
POINTS 411
DATA ascii
2.3478999 0.91869003 3.1977
2.6106999 0.91838998 3.1993001
2.0962846 0.98726237 3.1957767
2.142 1.0003999 3.1991
2.0952499 1.049075 3.1959753
2.0968249 1.1031874 3.194725
2.1112373 1.1040963 3.1943185
2.1294224 1.1039816 3.1956446
2.1443498 1.1083111 3.1935053
2.2153275 1.1050444 3.1955943
2.2303035 1.1055394 3.1948681
2.2507727 1.1032772 3.1959
2.2692697 1.1036869 3.1955047
2.2903759 1.103904 3.1951079
2.309032 1.1035038 3.19504
2.3306134 1.1036909 3.1955454
2.3491218 1.104261 3.1963177
2.3671646 1.1038411 3.1961939
2.3892999 1.1039749 3.19555
2.4088387 1.1037668 3.1968501
2.4291368 1.1036052 3.1977425
2.4505556 1.1027555 3.1978886
2.4706769 1.1027385 3.1974847
2.50738 1.1027 3.1979599
2.1102543 1.1312166 3.1937878
2.128844 1.136764 3.1923122
2.21575 1.13512 3.1955299
2.48614 1.1331799 3.1986599
2.1111002 1.1424222 3.1915555
2.1310713 1.1410857 3.1939285
2.2161999 1.1401501 3.1973
2.2252998 1.1419201 3.1942
2.112 1.1770637 3.1932638
2.1308041 1.17515 3.1966496
2.2143333 1.1776333 3.1982667
2.2270083 1.1755749 3.1981585
2.2527301 1.17573 3.1947103
2.26964 1.17612 3.1969099
2.2932999 1.1781 3.1989598
2.3098667 1.1754166 3.1969833
2.3290231 1.1756614 3.1986387
2.3486001 1.1754667 3.1989334
2.3680401 1.17628 3.1982398
2.3944199 1.17436 3.1989799
2.4095666 1.1750001 3.198689
2.4521999 1.1772 3.1979001
2.4712334 1.1751666 3.1990998
2.4829667 1.1734 3.1993999
2.53335 1.17785 3.19945
2.6026001 1.1799999 3.1998999
2.1133666 1.1868334 3.1927142
2.1288381 1.1861238 3.1950331
2.1426749 1.1820999 3.196775
2.2161572 1.1849428 3.1971142
2.2285633 1.185479 3.1967056
2.2536285 1.1839857 3.1970429
2.2696292 1.1842353 3.1964881
2.2901309 1.1841232 3.1968
2.310725 1.1840875 3.1974249
2.3283079 1.1836923 3.1976228
2.3507464 1.1840154 3.1977153
2.3666084 1.1838833 3.1984336
2.39341 1.18444 3.1981397
2.4098997 1.1841692 3.1986692
2.4310398 1.1848198 3.1985555
2.446775 1.184625 3.1983252
2.4714124 1.1856375 3.1988752
2.4938166 1.1861167 3.1991999
2.5474 1.1859666 3.1993001
2.5724201 1.1877201 3.1993799
2.6137202 1.18766 3.1995597
2.3637502 0.9142316 3.2065833
2.4617999 0.90899664 3.2168334
2.4894667 0.91861993 3.2019665
2.5209999 0.9174 3.2103
2.89925 0.916125 3.2095001
2.9008 0.91589999 3.2093
2.4911001 0.92111999 3.2033
2.6125 0.92093003 3.2005999
2.9008 0.92091 3.2100999
2.3743999 0.97952998 3.2031
2.4460666 0.97843999 3.2004001
2.5164857 0.97613716 3.2034857
2.5850201 0.97731799 3.2033
2.6561084 0.97642499 3.2035503
2.6631498 0.97740501 3.2016001
2.7284722 0.97274286 3.2055478
2.7957211 0.96929991 3.2067318
2.8048556 0.97448891 3.2070277
2.8727667 0.97156227 3.2081003
2.8834896 0.97490323 3.2040844
2.0968502 0.99596334 3.2047999
2.10115 0.99152499 3.20295
2.1434002 0.99629498 3.2019
2.2384501 0.99405503 3.20085
2.2415998 0.98934001 3.2025998
2.3065333 0.98680997 3.2007
2.37445 0.98807281 3.2046428
2.386375 0.99260247 3.2004001
2.4106667 0.9946034 3.2008333
2.4289668 0.99318993 3.2007666
2.4475219 0.99045378 3.2048347
2.4696076 0.9931736 3.2015216
2.49225 0.9913193 3.2021501
2.5104964 0.99178737 3.206378
2.5287359 0.98987955 3.2035761
2.5500352 0.99173892 3.2028854
2.5718794 0.99246842 3.2049968
2.5906291 0.99125487 3.2087488
2.6110392 0.99077904 3.203716
2.6308727 0.99233723 3.2058327
2.6510744 0.99061871 3.2089255
2.6711509 0.99009591 3.206991
2.6903875 0.99016857 3.2041669
2.7097707 0.99011773 3.2061906
2.7312789 0.98627496 3.2099757
2.7501268 0.99050367 3.2052824
2.7694402 0.98893869 3.2069285
2.7881246 0.98836154 3.2084749
2.8109629 0.9868142 3.210654
2.8298454 0.98938823 3.2060564
2.850554 0.98870713 3.2073383
2.8667431 0.98733658 3.2097378
2.8874846 0.9895004 3.2102177
2.9000001 0.99154001 3.2184999
2.4452 1.00045 3.2059002
2.5109999 1.0009 3.2076001
2.5482333 1.0015334 3.2002001
2.5762999 1.0003 3.2098
2.5985999 1.0021334 3.2038002
2.6112199 1.00307 3.2033
2.6272333 1.0017333 3.2067668
2.6451001 1.0019 3.2086
2.6671 1.0014 3.2018001
2.6933 1.0018167 3.2058668
2.7040999 1.0006 3.2093999
2.8171999 1.00295 3.2035499
2.8339 1.00195 3.2048998
2.8591499 1.0025001 3.2054501
2.8601 1.001 3.2079
2.8917875 1.0027875 3.2047751
2.0985 1.0386 3.2081001
2.5892999 1.039 3.21
2.6569664 1.0388999 3.2146666
2.6610999 1.0376 3.2132001
2.73435 1.0386499 3.2138751
2.8052001 1.0395501 3.2086
2.8760002 1.0383667 3.2097003
2.88186 1.0376799 3.2115002
2.0974801 1.0434401 3.2057602
2.1001 1.0438 3.2077
2.2431667 1.0445666 3.2014
2.3123 1.0452 3.2004001
2.3751249 1.0464001 3.201525
2.3843999 1.0470001 3.2
2.4461999 1.04668 3.2042
2.5170858 1.0445858 3.2065716
2.5210667 1.0434333 3.2040331
2.5899332 1.0456777 3.2058778
2.6283 1.0452 3.2002001
2.6570601 1.0459 3.2097001
2.6639373 1.0467875 3.204875
2.6919799 1.05498 3.2005401
2.7344332 1.0450583 3.2076416
2.8096151 1.0450462 3.2069769
2.8716252 1.04755 3.2067416
2.8846245 1.0478108 3.2067595
2.3746002 1.0981666 3.2046998
2.3857 1.0993 3.2000999
2.4491 1.0962501 3.2021499
2.5164602 1.09566 3.2050102
2.52105 1.09705 3.2040501
2.5738001 1.099 3.2
2.5899832 1.0958084 3.2060585
2.6293333 1.099 3.2010334
2.6546142 1.0958999 3.2050717
2.6616364 1.0947092 3.2056544
2.6897666 1.0983 3.2019665
2.71085 1.0982666 3.2012501
2.7307034 1.0937515 3.207068
2.7914999 1.0932001 3.2032349
2.8062086 1.0935143 3.2074518
2.8510783 1.0980113 3.2033219
2.8728104 1.090443 3.2085712
2.8837485 1.0942919 3.207427
2.0975349 1.1115248 3.2085202
2.1093502 1.1124961 3.2050235
2.1301532 1.1126734 3.2041557
2.14294 1.11614 3.2037799
2.2158065 1.1144466 3.2051666
2.2289724 1.112462 3.2048414
2.2491233 1.1121069 3.2055674
2.2710402 1.1121372 3.205066
2.2904825 1.11325 3.2045178
2.3107941 1.1115186 3.2067683
2.3303483 1.1126517 3.2049901
2.3499386 1.1131883 3.2049351
2.3705719 1.1117098 3.2063682
2.3920033 1.1124099 3.2053635
2.4097888 1.1117945 3.2055674
2.4300847 1.1123412 3.2056723
2.4499972 1.1116582 3.2069056
2.469523 1.1118699 3.2061956
2.4897716 1.1124804 3.2068839
2.5095754 1.1116889 3.2086952
2.5283377 1.1107769 3.208111
2.5499859 1.1108299 3.2071195
2.5690401 1.1111923 3.2079525
2.5871263 1.1084089 3.2113822
2.6097002 1.1106819 3.2081888
2.6298835 1.1100563 3.2084353
2.6486957 1.1098889 3.2105689
2.6706219 1.1070976 3.2105584
2.6888456 1.1098615 3.2107241
2.7094762 1.1098053 3.2113109
2.7283032 1.1063899 3.2132335
2.7508488 1.1081837 3.210469
2.7695739 1.109351 3.2117953
2.7883205 1.1097385 3.2132745
2.8135908 1.1057501 3.2134407
2.8302946 1.1086093 3.2123444
2.8506 1.1084682 3.212687
2.8656821 1.1102178 3.2147105
2.8877227 1.1060227 3.2108996
2.0971999 1.12395 3.21105
2.11375 1.1219499 3.20485
2.128 1.1215556 3.2052889
2.1429 1.1210999 3.2060001
2.2153332 1.1222 3.2072001
2.2265165 1.1238166 3.2035501
2.249923 1.1246463 3.2049537
2.2656751 1.121075 3.2070999
2.2920375 1.1234875 3.2036502
2.3082168 1.1216999 3.2067833
2.3256667 1.1234499 3.2046165
2.3504 1.1219445 3.2064114
2.37112 1.1233599 3.2074199
2.3901601 1.12132 3.2091401
2.4097428 1.1215571 3.2075143
2.4317331 1.1230111 3.2063222
2.4466667 1.1267334 3.2070005
2.4735003 1.1253111 3.2061446
2.4922693 1.1312808 3.2056196
2.5077317 1.1259737 3.2125316
2.5333998 1.128253 3.2108648
2.5494523 1.127032 3.2130315
2.5687001 1.1254715 3.2150478
2.5870285 1.1241857 3.2124712
2.6109178 1.1242117 3.2167234
2.6285169 1.1249111 3.216522
2.6466429 1.1242857 3.2185214
2.6767428 1.1247571 3.217443
2.6891179 1.1246817 3.2183454
2.7094545 1.1270455 3.2177179
2.7229998 1.1267667 3.2191
2.7493083 1.12595 3.2173414
2.7656751 1.127125 3.2172751
2.7909715 1.1272286 3.2175713
2.8169 1.1201 3.217
2.8323503 1.1279 3.2190499
2.8531599 1.1264399 3.21942
2.8723876 1.1288126 3.2150874
2.8866625 1.1326751 3.214025
2.0982749 1.1747 3.2054498
2.1020668 1.1742667 3.2083333
2.1333499 1.17345 3.2007
2.1435499 1.173275 3.2019749
2.2157502 1.1724501 3.2017751
2.23107 1.1726801 3.2034402
2.2475801 1.1744801 3.2030602
2.2716615 1.1737307 3.2011924
2.2899053 1.1730422 3.201653
2.30724 1.1749799 3.20327
2.330991 1.1729363 3.2016184
2.3515375 1.1728562 3.2024002
2.3708777 1.1730555 3.2047558
2.3892252 1.1744063 3.2033
2.4097352 1.1727942 3.2030649
2.4307845 1.1728947 3.2028575
2.4487391 1.1726695 3.2063558
2.4702685 1.1723735 3.2033472
2.4902303 1.1724566 3.2041523
2.5084829 1.1727611 3.2051497
2.5290504 1.1731346 3.2078156
2.5501263 1.1727843 3.2044842
2.5695524 1.1725 3.2038894
2.5904903 1.1725286 3.2105191
2.6094825 1.1726304 3.2052131
2.6296639 1.1724839 3.2055922
2.6466734 1.1722683 3.2043531
2.6706963 1.1725167 3.2103164
2.6890357 1.1728841 3.2063205
2.7088318 1.1723181 3.2056861
2.730757 1.1718142 3.2124288
2.7501876 1.1716541 3.2067959
2.7693784 1.1732714 3.2062356
2.7890828 1.1721392 3.2063997
2.8124728 1.1729274 3.2115457
2.8292482 1.1727245 3.2068579
2.8503304 1.1717819 3.2076182
2.865927 1.1717273 3.2079406
2.8859098 1.1712099 3.2139401
2.0976751 1.185575 3.2021749
2.1003499 1.1846499 3.2035999
2.1451001 1.1831 3.2000999
2.2430334 1.1821667 3.2040665
2.310225 1.181175 3.202625
2.3741803 1.1835799 3.2025599
2.3872499 1.181975 3.201225
2.4085665 1.1823667 3.2009668
2.4268334 1.1817 3.2000666
2.4512715 1.1823714 3.2012999
2.4687316 1.1848633 3.2011368
2.4904134 1.1833599 3.2015603
2.5098135 1.18372 3.2032268
2.5304186 1.1838937 3.2030754
2.55054 1.18485 3.2018349
2.5682724 1.1853056 3.2021554
2.58831 1.1837599 3.2053199
2.6111164 1.1844 3.2016582
2.6298738 1.1846219 3.2039263
2.6473002 1.1853818 3.2024093
2.6731765 1.1836411 3.2079945
2.6904049 1.1851953 3.2051094
2.7118609 1.184287 3.2049434
2.7319365 1.1834819 3.2111182
2.7494895 1.1850685 3.2052369
2.7712951 1.1850998 3.2055449
2.7877271 1.1839091 3.2064271
2.8132358 1.1838286 3.2061005
2.8301814 1.1844625 3.2056627
2.8501532 1.1831293 3.2057822
2.8632891 1.1843778 3.2078776
2.8840501 1.18599 3.2100499
2.4013 0.89140999 3.2376001
2.4331 0.89590001 3.2309999
2.8364501 0.89695001 3.2392001
2.4183333 0.90404004 3.2220333
2.7597001 0.90599 3.2212
2.8753331 0.97868997 3.2223003
2.6617 0.99219 3.2217
2.7324855 0.99035853 3.2211998
2.7768002 0.99131662 3.2210999
2.78105 0.99098504 3.2231002
2.8057001 0.99009508 3.2217834
2.8497798 0.99084395 3.2214799
2.8764601 0.98581058 3.2248337
2.8843668 0.99015909 3.2239168
2.7311001 1.0384001 3.2228999
2.80498 1.0356801 3.22262
2.8762083 1.0359167 3.2252252
2.88064 1.0319201 3.22612
2.6589999 1.0422 3.2200999
2.87795 1.04195 3.2219501
2.8076 1.0997 3.2214999
2.8773251 1.0954125 3.2236626
2.8818002 1.0991499 3.2238002
2.5171335 1.1164333 3.2211666
2.57565 1.1184001 3.2216001
2.5907376 1.1169125 3.2223876
2.6227 1.1179 3.2221
2.6500332 1.1188334 3.2202332
2.6647413 1.1139293 3.2249942
2.7096 1.1192501 3.2203999
2.733572 1.110904 3.2245116
2.7461143 1.116557 3.222543
2.7728 1.1187501 3.2211251
2.789 1.1170199 3.2211404
2.8107562 1.1108906 3.2271249
2.8315582 1.1174999 3.2227833
2.8506701 1.11782 3.2212701
2.8748038 1.1101111 3.2268476
2.8886757 1.1117102 3.2291586
2.0995002 1.1229 3.2207999
2.5764 1.122 3.2221
2.5880499 1.1219001 3.2235999
2.6288285 1.1228285 3.2205715
2.6546001 1.1249001 3.221
2.6664 1.12195 3.2277498
2.6944573 1.1234143 3.2209284
2.7118444 1.1228889 3.2210665
2.72486 1.1225001 3.2211201
2.7472401 1.1226799 3.2238801
2.7703583 1.12415 3.2214582
2.7892454 1.1244545 3.2215178
2.8151667 1.1243666 3.2279665
2.8319726 1.1231817 3.2214997
2.8504155 1.1244614 3.2212844
2.8672411 1.1236118 3.222106
2.8921454 1.1231545 3.2284636
2.6644502 1.1689501 3.22155
2.7339332 1.1721222 3.2228003
2.8077917 1.1703333 3.2260835
2.8779666 1.1694 3.2274082
2.8856332 1.1698191 3.2284069
2.8907499 1.1809 3.2210999
2.9198999 0.87858999 3.2567
2.4013 0.89327002 3.24
2.8345001 0.89385998 3.2404001
2.8698997 0.88334 3.257525
2.9161077 0.88702321 3.250823
2.9207001 0.88085002 3.2591
2.8948998 1.1143999 3.2438998
2.8987331 1.1715 3.2440002
2.89095 0.874735 3.27315
2.9102302 0.87158096 3.2747397
2.9228945 0.87360942 3.2701941
2.9215999 0.88275003 3.2618999
2.9354334 0.8577134 3.2966335
2.9116249 0.86739242 3.283375
2.9300599 0.86462605 3.2827199
