# .PCD v0.7 - Point Cloud Data file format
VERSION 0.7
FIELDS x y z
SIZE 4 4 4
TYPE F F F
COUNT 1 1 1
WIDTH 1588
HEIGHT 1
VIEWPOINT 0 0 0 1 0 0 0
POINTS 1588
DATA ascii
0.1025 0.60074002 0.61472005
0.091576882 0.62343562 0.61130661
0.075845793 0.64786398 0.60977995
0.099307001 0.43562999 0.62375998
0.10855333 0.45654002 0.62723333
0.11123 0.46173 0.63577002
0.11722 0.48609999 0.63181001
0.12105 0.49144 0.62067002
0.11926 0.50988495 0.62450999
0.123016 0.50274795 0.63110799
0.1143575 0.55828005 0.63709503
0.11245374 0.56638622 0.63219005
0.10596643 0.59205002 0.62743431
0.098025396 0.60861802 0.63167202
0.10235167 0.60274339 0.63322335
0.088171102 0.63085723 0.63139105
0.072468199 0.65211403 0.62708795
0.13969 1.8329999 0.63551003
0.14136 1.8369 0.63654
0.13833 1.85605 0.63444996
0.14221001 1.84835 0.63740999
0.15141 1.8848 0.63865
0.1032 0.43945 0.64398003
0.10054 0.44031999 0.64275002
0.11726 0.49135 0.65784001
0.12333 0.49785 0.64554
0.11872 0.51176 0.64888
0.12339 0.50722003 0.65236497
0.1176475 0.55728006 0.649575
0.11418125 0.567635 0.64759624
0.106038 0.59778202 0.65022403
0.098555848 0.6106286 0.64889431
0.10243002 0.60505122 0.64947629
0.086167008 0.63355088 0.64787918
0.078985997 0.64059001 0.65043002
0.081353001 0.64202338 0.65159333
0.047847401 0.67635399 0.647596
0.15098 1.749 0.64368999
0.16722 1.8558 0.65612
0.15197501 1.88465 0.64262998
0.17175499 1.88685 0.65963501
0.16496333 1.9754 0.64995337
0.15775999 1.9969 0.64617997
0.16219001 1.9965 0.64848
0.11388625 0.47201875 0.67044121
0.11660999 0.48376334 0.6711033
0.11754 0.5552873 0.67031091
0.11262067 0.57069868 0.67058337
0.10943999 0.58712 0.67228001
0.096868418 0.61361831 0.67317587
0.10371571 0.60632002 0.67097431
0.091789663 0.62943667 0.66482002
0.087559335 0.68555665 0.67279667
0.19127333 2.0035667 0.66716999
0.099357001 0.43687999 0.68360001
0.10162 0.43849999 0.68470001
0.11052001 0.46028 0.68457496
0.11842 0.49081999 0.69968998
0.11743667 0.551238 0.68745732
0.11323056 0.57000393 0.69026393
0.10896667 0.58811498 0.69213086
0.094941139 0.61634427 0.68722862
0.089841999 0.62092 0.68099999
0.061389748 0.66712749 0.69179004
0.11568 0.47825 0.70548999
0.1144825 0.48492751 0.705805
0.117445 0.53814 0.71635002
0.12051 0.53873998 0.70245999
0.117029 0.55208999 0.70840394
0.12098 0.54167002 0.70279998
0.11284999 0.57087064 0.70961541
0.10789429 0.59019572 0.70840424
0.094106495 0.61890996 0.70880997
0.089008495 0.6295225 0.71315622
0.085796997 0.64982998 0.70081002
0.06174143 0.66768998 0.70739853
0.12637 0.50167 0.73926002
0.119625 0.53768003 0.72854996
0.11634833 0.54929668 0.72417831
0.11347667 0.57170326 0.72635168
0.10595644 0.59080642 0.73383063
0.094553001 0.61997998 0.72174001
0.101755 0.60121 0.73829997
0.088124938 0.62971824 0.73016298
0.053332999 0.671 0.72613335
0.060757998 0.66856331 0.72320336
0.11984 0.49093997 0.74588501
0.12022 0.49121001 0.74606001
0.12005 0.53781998 0.75783002
0.11677635 0.55011547 0.74863547
0.1139953 0.56875467 0.7504288
0.10505733 0.59178936 0.75168198
0.098133147 0.6071294 0.75168788
0.10025 0.61233002 0.74953997
0.08578375 0.6337142 0.74724752
0.055474199 0.670228 0.74565202
0.061780661 0.66764331 0.74777001
0.11229666 0.45427999 0.77618337
0.11220333 0.46780169 0.77457839
0.11540111 0.48932886 0.77038884
0.118336 0.53728801 0.77298403
0.12217667 0.53618997 0.76624995
0.116135 0.55033004 0.76991308
0.12006 0.54040003 0.77302998
0.11220285 0.56917864 0.77221501
0.10676876 0.58934659 0.7719546
0.096411169 0.61267668 0.76967496
0.10172857 0.60334575 0.77026427
0.087103002 0.63171333 0.76398998
0.078354999 0.65136498 0.77938002
0.053642999 0.67044699 0.76849896
0.083588496 0.66702998 0.76463002
0.113595 0.47773498 0.78693247
0.11514249 0.48814249 0.78983873
0.11688 0.50196999 0.78900999
0.12132 0.53847003 0.78812003
0.11781155 0.54892999 0.79065853
0.1203 0.54302001 0.78786999
0.11278684 0.57002103 0.79056209
0.099839002 0.59929001 0.78139001
0.1064079 0.59018105 0.79010206
0.096413769 0.61184758 0.78956652
0.10202833 0.60390168 0.79247499
0.091738999 0.62316 0.7917763
0.075480901 0.65232098 0.79186106
0.054908775 0.67226887 0.7893911
0.108435 0.45541501 0.80438501
0.10947333 0.46233001 0.81755
0.11941 0.49843001 0.8057
0.11794334 0.50155336 0.80355
0.12233 0.53931499 0.81344497
0.11651374 0.55137002 0.81083244
0.12062 0.54280251 0.80537003
0.11243418 0.57089496 0.80925423
0.1067795 0.59036249 0.81030846
0.095681995 0.61397499 0.80981934
0.10224 0.60216331 0.80832005
0.090314008 0.62416852 0.81019145
0.075303666 0.65078998 0.80804664
0.052771252 0.6730175 0.80998129
0.10147 0.43705001 0.8258
0.10416625 0.44690874 0.82596505
0.11267201 0.47386199 0.83155698
0.11761375 0.49259126 0.82905501
0.12009 0.49847001 0.8355
0.11945 0.53994 0.83679998
0.115665 0.5514794 0.83140367
0.11224104 0.57063842 0.83166319
0.10721684 0.59041101 0.83040953
0.096760146 0.61184424 0.82956362
0.10223 0.60343713 0.82947856
0.091548346 0.62562829 0.83135772
0.072618745 0.65763003 0.82500005
0.052804999 0.67344999 0.83278
0.069379002 0.66101003 0.82151002
0.10471 0.44800001 0.84684002
0.10953333 0.46655667 0.84871334
0.11489221 0.48821661 0.84863222
0.11822 0.50117499 0.85170496
0.11802 0.53969002 0.84085
0.11612933 0.55256134 0.84848744
0.120325 0.54364002 0.84920001
0.11183 0.57112169 0.84863085
0.10662 0.59081721 0.84940219
0.096015058 0.61317772 0.85025644
0.101875 0.60449332 0.8464517
0.09027791 0.62659252 0.84974915
0.099477001 0.43850499 0.87641001
0.10102 0.43961 0.87703001
0.103044 0.44447002 0.86868799
0.11142285 0.47123143 0.86993283
0.115512 0.49164099 0.86913604
0.11818416 0.50978166 0.87114334
0.116909 0.55647296 0.86846
0.11240584 0.56984955 0.86999661
0.099007003 0.59893 0.87002999
0.10582843 0.58953321 0.87038684
0.095964111 0.61257499 0.87024385
0.10102 0.60494 0.86866999
0.088928737 0.62497336 0.86886066
0.076349132 0.64793247 0.87167007
0.080402002 0.64683002 0.87713999
0.10717333 0.45358667 0.88950998
0.11146001 0.46983999 0.89410198
0.11439333 0.48791918 0.88844913
0.11621375 0.50615877 0.88881755
0.12015 0.51006001 0.89402002
0.11821999 0.52983201 0.89210606
0.12080667 0.52563667 0.89727998
0.11278 0.57185739 0.89045054
0.098532997 0.59741002 0.89888
0.10616633 0.58922791 0.88929325
0.09534014 0.61140907 0.89003754
0.10095199 0.60275805 0.88653201
0.088241324 0.62659538 0.8885361
0.07106854 0.65245235 0.89225614
0.080480002 0.64647001 0.89414001
0.098348342 0.43557334 0.90954667
0.10071 0.43365502 0.91034001
0.10528667 0.45107999 0.91099548
0.1109525 0.47040999 0.91474998
0.11534833 0.48984334 0.90491837
0.11773917 0.50819081 0.91144162
0.11744071 0.53039783 0.91122496
0.12078 0.53073001 0.90917999
0.11779714 0.54523855 0.9107343
0.12098 0.55139333 0.90927339
0.111622 0.57727802 0.905752
0.10592332 0.59067434 0.90871429
0.094126053 0.61255312 0.9103716
0.101115 0.60487002 0.90610003
0.086705774 0.62977439 0.90865719
0.069536284 0.65318722 0.90948993
0.06735 0.6602 0.90447003
0.096764997 0.4289 0.93285
0.10045 0.43763 0.93918997
0.10574751 0.45124251 0.93015873
0.11065201 0.46818399 0.92665195
0.11469 0.48730141 0.93472862
0.11735222 0.5086289 0.92727989
0.12037 0.51475 0.92632997
0.11748933 0.52949268 0.93038595
0.11565 0.54934138 0.93226713
0.11449 0.56123 0.93672001
0.099928997 0.59882998 0.92347997
0.10527124 0.59273684 0.92751932
0.09455739 0.61090297 0.93022001
0.1006225 0.60363251 0.92870748
0.086461224 0.62912482 0.93069434
0.067974605 0.65385103 0.93060094
0.080574997 0.64056998 0.92786998
0.059969001 0.66483998 0.93869001
0.063262753 0.66097748 0.93174499
0.1049775 0.44911623 0.94976616
0.11053001 0.46819365 0.94746363
0.11410444 0.49129778 0.95403439
0.11691267 0.50948399 0.95132601
0.11762584 0.53193909 0.95236665
0.12022 0.52711999 0.94226998
0.11613648 0.54959464 0.94934529
0.11314858 0.56477576 0.95137423
0.10125 0.59682 0.94190001
0.094859362 0.61323684 0.94865179
0.10129 0.60620999 0.95773
0.076031335 0.63861996 0.95590669
0.085411839 0.6297735 0.94961751
0.074574225 0.64538538 0.9486708
0.058655001 0.66855001 0.95771998
0.061728999 0.66118997 0.94160002
0.095251501 0.427275 0.96783996
0.10547333 0.44965002 0.97047663
0.112422 0.47385803 0.96774995
0.11478734 0.48944473 0.97081935
0.11792546 0.51111275 0.96974909
0.12173 0.51304001 0.96569002
0.11801714 0.52821714 0.97044355
0.12036 0.52884001 0.97526997
0.11591454 0.55008096 0.97136396
0.11181714 0.56832069 0.9710393
0.10834666 0.58334333 0.97639662
0.095121622 0.61301124 0.96739626
0.077789001 0.6388033 0.97167665
0.085737132 0.62877834 0.96925759
0.071869634 0.64767361 0.97154623
0.057981499 0.67157501 0.96719003
0.098640002 0.43340001 0.99765003
0.105845 0.45262 0.9899925
0.11042545 0.47015095 0.98694551
0.113575 0.48744166 0.98678833
0.11763556 0.5120433 0.9904511
0.12015 0.50971001 0.98864001
0.11833234 0.53038293 0.99136877
0.12127 0.52711999 0.99891001
0.11517537 0.54939848 0.99043918
0.11190466 0.56857002 0.989972
0.10911249 0.58377874 0.9892301
0.079086669 0.63644332 0.98959666
0.085379742 0.62799215 0.98848885
0.059204999 0.65963 0.98888999
0.070767038 0.64821196 0.98982841
0.058623999 0.662655 0.99843001
0.099861003 0.43654999 1.0168
0.10661 0.45200166 1.0114332
0.11084112 0.47143444 1.0102556
0.11320666 0.48540223 1.009189
0.11688875 0.50736499 1.01115
0.1202 0.51718003 1.0077
0.11769888 0.52891725 1.0096
0.12015 0.52148002 1.0007
0.1155685 0.55071449 1.0091602
0.11176235 0.56995714 1.0085822
0.10677125 0.58775252 1.0100499
0.078172997 0.63583797 1.0087601
0.0843594 0.63353002 1.00661
0.0564605 0.65947002 1.00365
0.069345579 0.64926267 1.0109655
0.056528669 0.66652453 1.0119222
0.11675 0.71044999 1.0091
0.10072 0.43827999 1.0265
0.10471428 0.4502843 1.0280714
0.11002667 0.46864 1.0311666
0.11594399 0.49092799 1.0288401
0.11672583 0.50900668 1.0295166
0.11805999 0.52839261 1.0283467
0.11577182 0.54887229 1.029732
0.1114888 0.56885558 1.0303681
0.10575704 0.58868527 1.0296
0.098971501 0.60571003 1.0369
0.10266199 0.60409397 1.0332401
0.076494001 0.63896 1.0314
0.091999501 0.63441503 1.0312001
0.0592365 0.658925 1.0352499
0.067519687 0.65178919 1.0303869
0.052299898 0.66653651 1.0308601
0.061016001 0.66008002 1.0369999
0.10677999 0.45350999 1.0497
0.111456 0.47194001 1.0496466
0.1147991 0.49297819 1.050209
0.11661867 0.51173472 1.0494066
0.12198 0.50700003 1.0447
0.11838084 0.53310335 1.0528333
0.11530542 0.54952991 1.0491792
0.10983957 0.57165688 1.0499305
0.099780001 0.59777498 1.05305
0.10387333 0.59151477 1.0497333
0.095915236 0.60988152 1.0541923
0.10094 0.60630751 1.0438249
0.057786334 0.65974003 1.0549668
0.066842161 0.65171784 1.0503442
0.21614 2.0764499 1.05945
0.216175 2.0827 1.0574501
0.222 2.0829999 1.0583
0.1016 0.43877 1.0616
0.10397333 0.44933164 1.0707333
0.10901099 0.46647698 1.07074
0.11447637 0.49056092 1.0722182
0.11683846 0.51005149 1.0702077
0.11747357 0.53113997 1.0708928
0.11475524 0.55068618 1.0688763
0.10991353 0.57298821 1.069153
0.098038003 0.59815001 1.0689
0.10440832 0.5898484 1.0695958
0.094914541 0.61140549 1.0703099
0.10132001 0.60499001 1.0770334
0.090566836 0.62234503 1.0710834
0.059294 0.65684497 1.06935
0.06315355 0.65428895 1.0678223
0.2115 1.7513499 1.0725501
0.21469998 2.07528 1.0708201
0.2344525 2.0685749 1.072425
0.21472001 2.0823002 1.0670333
0.22233 2.0841999 1.0628999
0.10663427 0.45390144 1.0924286
0.11056999 0.47057 1.0910832
0.11580545 0.49202272 1.0900728
0.11695833 0.51120162 1.0891
0.1176979 0.53076839 1.0901631
0.12 0.52143002 1.0994999
0.1146059 0.54982179 1.089009
0.11062345 0.56989193 1.0897653
0.099483334 0.59675997 1.0906
0.10369945 0.59045339 1.0885445
0.094264187 0.61237669 1.0893857
0.10247 0.60330999 1.0978
0.087140106 0.62525696 1.09243
0.06577675 0.6588375 1.08705
0.087325498 0.65885502 1.0922999
0.068842001 0.66148001 1.0908
0.23763001 1.845225 1.09225
0.20923001 2.079 1.0965
0.19742 2.0848999 1.0817
0.20673446 2.0831001 1.0906111
0.25630999 2.0896001 1.0831
0.25078499 3.14185 1.0868499
0.27654999 3.1624 1.0954
0.10478362 0.45064002 1.1090546
0.10919785 0.46832076 1.1111642
0.1151475 0.49134064 1.1101189
0.11683334 0.50859922 1.1083416
0.11704732 0.53013802 1.1100866
0.12166 0.53321999 1.1051
0.11496999 0.54955453 1.1094728
0.1095505 0.5700475 1.10967
0.098500997 0.59941 1.1104
0.10473777 0.5891605 1.1085722
0.095260702 0.61130655 1.110126
0.101195 0.60174751 1.1113
0.079135999 0.63472503 1.1112499
0.084637456 0.62923265 1.10804
0.077702001 0.64156002 1.1158
0.20822142 2.0760429 1.1124572
0.20756216 2.0862 1.1098428
0.22233501 2.092 1.1120501
0.31904 3.0139999 1.1174001
0.31343001 3.0502 1.104
0.25266668 3.1147668 1.103
0.25538999 3.1293666 1.1051666
0.10538857 0.45314428 1.1261429
0.10958167 0.47140834 1.1291167
0.11387693 0.49091154 1.1296308
0.11632384 0.50897998 1.1291386
0.11583842 0.52913469 1.1300579
0.11509959 0.54965293 1.1300751
0.10934731 0.568905 1.1308076
0.098584503 0.59838498 1.1287999
0.10338819 0.5886941 1.1287272
0.09489052 0.61061043 1.131313
0.10106 0.60175002 1.1203001
0.078484774 0.63644338 1.1296666
0.08595971 0.62737149 1.128705
0.076095097 0.64300799 1.1292598
0.1432775 1.6083 1.1335751
0.17430499 1.60865 1.13175
0.19446999 1.6087667 1.132
0.21612 1.6101 1.1317
0.19547285 2.0858142 1.1355143
0.21280999 2.0882001 1.1309501
0.224675 2.0857 1.1322501
0.17114 2.2179999 1.1324
0.19622333 2.2160001 1.1307334
0.20915 2.2112203 1.1301
0.23796 2.2121 1.12995
0.26241001 2.2177999 1.1293
0.19495499 2.2264752 1.130775
0.20771599 2.2270198 1.12936
0.25420249 2.2339752 1.1315
0.26391336 2.2310333 1.1309334
0.18615 2.2446001 1.1288333
0.25453287 2.2497714 1.1313286
0.26967502 2.25385 1.1307
0.24295665 2.2728002 1.1295334
0.18294001 2.2937999 1.12975
0.23046333 2.2939003 1.1307334
0.24761 2.2950001 1.1317999
0.26729 2.289943 1.1307
0.21722499 2.311475 1.1318749
0.25357801 2.3064799 1.13196
0.27339801 2.30936 1.13178
0.1894 2.3357334 1.1332
0.27140877 2.3291876 1.1316249
0.20807333 2.3478332 1.13195
0.237555 2.3435001 1.1305001
0.25505501 2.3527498 1.1321
0.27645335 2.3436 1.1303667
0.19240248 2.3692 1.13095
0.21712199 2.3729601 1.13188
0.22343001 2.3727498 1.1316
0.25119752 2.3755748 1.1317501
0.26984748 2.3720751 1.1308625
0.22777833 2.3892334 1.1317334
0.254805 2.388 1.1311125
0.27695331 2.3846667 1.1313666
0.18217 2.4042001 1.1292
0.20306 2.41255 1.1314
0.23513 2.4103999 1.1312001
0.25669336 2.4165001 1.1327667
0.27143714 2.4135716 1.1307429
0.18847001 2.4228001 1.1318001
0.21291 2.4351001 1.1307
0.233365 2.424 1.1322501
0.2717025 2.435075 1.1315999
0.19264334 2.4520998 1.1308167
0.20848 2.4586999 1.1302
0.22982998 2.4473999 1.1334333
0.24990833 2.4485333 1.1318834
0.27487603 2.4473801 1.1313601
0.28384501 2.4528501 1.13185
0.18823667 2.4643667 1.1303334
0.21128 2.4616001 1.1312
0.22627001 2.4767499 1.132
0.27745667 2.4714334 1.1319667
0.28422335 2.4675999 1.1317834
0.19473 2.4949 1.1315
0.226495 2.48595 1.13245
0.25291499 2.4857001 1.132
0.273985 2.48435 1.132575
0.19493 2.5020001 1.1323
0.24273001 2.5172999 1.1344
0.25751001 2.615 1.1339
0.28997999 2.6124749 1.1327
0.21613 2.6396999 1.135
0.246244 2.62942 1.1348799
0.26679498 2.6321502 1.1321
0.29146001 2.6201999 1.1318001
0.2174 2.6429999 1.1356
0.24473834 2.6521165 1.1342334
0.27432331 2.6559334 1.1335
0.2819975 2.6444249 1.134075
0.208875 2.664525 1.133725
0.23354501 2.67485 1.1342
0.25308499 2.6677248 1.1345249
0.27132666 2.6675999 1.1330333
0.28845999 2.6631 1.1346
0.20603 2.6936998 1.1339999
0.22673 2.6912 1.136
0.29705334 2.7682667 1.1384667
0.29062 2.7844 1.1399
0.31095377 2.8129997 1.1347625
0.27715001 2.8327999 1.1352334
0.30666664 2.8277333 1.1353667
0.25078666 2.8427665 1.1345
0.27735001 2.8410001 1.1356
0.29113501 2.8554749 1.135175
0.31242001 2.8576 1.13475
0.25355333 2.8664999 1.1363333
0.26080668 2.8687334 1.1357666
0.29021001 2.8700001 1.1350666
0.313786 2.8701 1.13568
0.23506999 2.8840332 1.1369667
0.243965 2.89575 1.13585
0.27126998 2.8928499 1.1356
0.29231802 2.8885798 1.1358
0.31536001 2.8803999 1.1387
0.23060749 2.9137249 1.136675
0.24906 2.9057 1.1379
0.26921001 2.91274 1.13832
0.28749627 2.9119875 1.1366875
0.30992201 2.9129601 1.1368999
0.28754503 2.9947751 1.12905
0.30660999 2.9923 1.1252
0.235525 3.00825 1.1296
0.29118666 3.0355332 1.1258668
0.294925 3.0487499 1.1296667
0.24874 3.0755999 1.1266
0.29041666 3.0703001 1.1288556
0.2396 3.0848 1.1305
0.290335 3.0932 1.1235499
0.26952001 3.1031666 1.1299666
0.23533332 3.1233666 1.1261667
0.29437003 3.1574333 1.1258334
0.1048075 0.4507775 1.1519625
0.11146571 0.47265574 1.1527855
0.11435533 0.49007204 1.1500334
0.11616299 0.51055151 1.149235
0.11627572 0.53046232 1.1496141
0.11487287 0.54647219 1.1483858
0.11100087 0.57048863 1.1507914
0.099926002 0.5988 1.1585
0.10527161 0.58961999 1.1496482
0.094532833 0.60954309 1.1510807
0.10124 0.60229003 1.1431
0.077676497 0.63841999 1.1485001
0.085105784 0.62803084 1.1503738
0.070669055 0.64706767 1.1508
0.17946 1.6046 1.143
0.12986499 1.6342 1.1530499
0.18497001 1.6366 1.1545
0.20646 1.6358 1.1561
0.137705 1.65395 1.15125
0.14032 1.6524999 1.1507499
0.196905 1.6537499 1.15295
0.22672001 1.659 1.1539
0.13079333 1.6729666 1.1478001
0.15857001 1.6793 1.1487
0.1732775 1.67295 1.1499
0.22683001 1.6624 1.154
0.13719666 1.6950001 1.1480666
0.183742 1.6930399 1.14922
0.20570666 1.6967999 1.1494333
0.22394 1.6895 1.1498499
0.13244599 1.7116801 1.1460201
0.17411999 1.7194999 1.1457
0.18513 1.7029999 1.1482
0.20497499 1.7120501 1.1493
0.18882857 1.7300571 1.1471857
0.21178 1.7277 1.1479
0.18561333 1.7441 1.1455666
0.20423 1.7460999 1.1464
0.21546 1.7744501 1.1571
0.20757 1.7803 1.1487
0.19687799 1.8322401 1.1435601
0.20051 1.8279999 1.1485
0.23040666 1.8322001 1.1499
0.19407 1.8408999 1.14375
0.21027 1.8502142 1.1523285
0.22868499 1.848125 1.143075
0.20835 1.8638 1.15205
0.168014 1.9117399 1.15574
0.21893001 1.9129 1.1569
0.22348332 1.9069999 1.1586334
0.16537499 1.93645 1.1514001
0.18111666 1.9280334 1.1511667
0.214485 1.926 1.1516
0.1586225 1.95665 1.15255
0.16826001 1.9572999 1.1507499
0.20794 1.9491999 1.15065
0.15778309 1.9697921 1.1564153
0.16293365 1.9683362 1.1526272
0.15824001 1.9825749 1.1574
0.168138 1.9857801 1.1547501
0.20283 2.0397 1.1592
0.19681001 2.0434999 1.1599
0.2031675 2.0480249 1.157475
0.18718556 2.0731554 1.1519111
0.19377549 2.0859451 1.14835
0.2018275 2.0936248 1.1510501
0.23746 2.7995999 1.1434
0.27169335 2.7915001 1.1407332
0.29003 2.7843001 1.1418999
0.23071 2.9187 1.1413
0.28672001 2.9180334 1.1415334
0.31287 2.9173 1.1414
0.29205999 2.9207001 1.1410999
0.10275749 0.44805372 1.1692499
0.11028167 0.46961835 1.1656666
0.11421002 0.48832366 1.1704273
0.11707062 0.51060998 1.1688625
0.11656889 0.53108615 1.1718222
0.11396762 0.55064994 1.1713285
0.10972822 0.57138425 1.1706429
0.098596498 0.59803498 1.17875
0.10370727 0.59072691 1.1713319
0.093918718 0.61038238 1.1712
0.10184 0.60075998 1.1705
0.078100853 0.63700002 1.1720715
0.084192909 0.62858307 1.1696699
0.070397653 0.64659148 1.1704301
0.17530334 1.6034001 1.1669
0.18460333 1.7358665 1.1617666
0.1987 1.745 1.1623
0.204015 1.7488 1.16285
0.1969 1.7646401 1.1642401
0.21481143 1.7759285 1.1685287
0.2329721 1.7896473 1.1734896
0.21219 1.8134 1.1727999
0.22733441 1.8058376 1.1688
0.21364251 1.833375 1.1665
0.2269869 1.8305461 1.1651462
0.18415 1.8533 1.1799999
0.2138575 1.850425 1.165525
0.22674499 1.8498213 1.1698713
0.21329001 1.8718857 1.1686
0.22401069 1.8657199 1.1694332
0.19713999 1.8964 1.1786
0.204005 1.8859802 1.1660099
0.1551 1.9764 1.1612
0.15807 1.9868 1.1602
0.168152 2.0152802 1.1691599
0.16944832 2.0310917 1.1692833
0.19116665 2.0339334 1.1630667
0.16103201 2.0464799 1.17498
0.186084 2.0781801 1.1668999
0.20692 2.0650201 1.1743
0.19510776 2.0849497 1.1693224
0.200985 2.0911999 1.165
0.231125 2.0918002 1.1727165
0.10439999 0.45058823 1.1918727
0.1101425 0.47078416 1.1893167
0.116266 0.49234995 1.18801
0.1167953 0.50948411 1.1885648
0.1164128 0.53106391 1.1897779
0.11456125 0.55109376 1.1913749
0.11012653 0.57035345 1.1897695
0.098313004 0.59766001 1.1967
0.10317 0.58950245 1.1903812
0.094323359 0.61056918 1.189308
0.077678248 0.63574129 1.1902624
0.084267154 0.62699473 1.1894261
0.058775336 0.65474999 1.1959333
0.0678996 0.64897555 1.189672
0.055592202 0.66266996 1.1966799
0.061295331 0.66059333 1.1860334
0.195245 1.7354749 1.1867001
0.19903 1.7438 1.1885999
0.2059925 1.746925 1.18775
0.18750501 1.7703 1.1942
0.20996401 1.76845 1.1877898
0.21060601 1.79282 1.19648
0.2335511 1.7915944 1.1899389
0.21675 1.811075 1.189775
0.22940071 1.8081285 1.1871357
0.17794998 1.8355001 1.1865
0.18432 1.828425 1.1867501
0.20293 1.8286999 1.1993001
0.22949 1.8248333 1.1873834
0.1671757 1.8479856 1.1851
0.18658501 1.8515999 1.18055
0.22728375 1.8525249 1.1888125
0.21516499 1.8788 1.18705
0.23203667 1.8641167 1.1874665
0.19832501 1.8952999 1.1811
0.20574223 1.8904334 1.1873555
0.15652999 1.91855 1.18735
0.17928 1.9012001 1.1848
0.18223 1.903 1.1824
0.15442 1.922025 1.18805
0.19143213 2.0732784 1.1883143
0.20680249 2.067975 1.192875
0.19379 2.0853133 1.19036
0.23148908 2.0922637 1.189
0.1047 0.45388222 1.2082888
0.11076666 0.47250736 1.21048
0.11464614 0.49036467 1.2070154
0.11742707 0.51097757 1.2101765
0.11621846 0.52842999 1.2099999
0.11374834 0.54985946 1.2088944
0.11035191 0.56906575 1.2093476
0.099827327 0.59514332 1.2088
0.10355545 0.58800411 1.2090818
0.095058814 0.60878932 1.2101332
0.10143 0.60083002 1.2198
0.076506875 0.6372 1.2089876
0.085251115 0.62696642 1.2103354
0.058325 0.65737998 1.20565
0.068615697 0.64897543 1.2112463
0.12287 1.5872999 1.219
0.17160599 1.7430999 1.2072198
0.18442667 1.7510166 1.209
0.19556625 1.7682874 1.2039375
0.20402545 1.7729728 1.2125547
0.2088421 1.7912841 1.2097946
0.20946944 1.8093889 1.2111778
0.19777168 1.8368168 1.2044667
0.20499894 1.8306054 1.2119368
0.17835501 1.85745 1.21025
0.19289558 1.8477001 1.2109112
0.20319 1.8401999 1.2064
0.191705 2.0750625 1.20995
0.20168667 2.0704 1.2123667
0.19428472 2.0852578 1.2100052
0.20354846 2.0944383 1.2107538
0.20531499 2.10185 1.2165999
0.25962001 2.1243 1.2186
0.26244 2.1313555 1.2189001
0.10607571 0.45167285 1.2350857
0.11161084 0.47115085 1.2273999
0.11416 0.48854002 1.2287835
0.11598857 0.5092479 1.2322357
0.11540131 0.52988344 1.228987
0.11429227 0.55014098 1.2293864
0.10986625 0.56848502 1.2286081
0.099131204 0.59444797 1.2298
0.10494286 0.58776474 1.2299951
0.09454304 0.61009842 1.22938
0.077166334 0.63610202 1.2290599
0.084681571 0.62647778 1.2273285
0.057248749 0.65836501 1.2296
0.066101328 0.65026617 1.2304382
0.18322501 1.58535 1.22755
0.19344665 1.7543999 1.2236333
0.20122001 1.7594 1.2243
0.19685249 1.76595 1.224
0.20251 1.7732334 1.2208
0.21463555 1.794089 1.2262444
0.21230108 1.8087392 1.2238001
0.20844273 1.8284454 1.2245272
0.19166376 1.8528625 1.223
0.20845999 1.8409666 1.2269667
0.19172999 2.0781999 1.227275
0.21885 2.0701001 1.2315
0.19570461 2.0864539 1.2264538
0.20287001 2.0961356 1.2268215
0.19989 2.1027 1.2323999
0.2062315 2.1103699 1.2280501
0.25784999 2.1199 1.2328
0.19641 2.1389999 1.2285
0.20416698 2.1307602 1.2299501
0.2590341 2.1285233 1.2282118
0.26106 2.1324666 1.2312833
0.19232999 2.14398 1.22844
0.249245 3.0981002 1.2353001
0.098976001 0.44543999 1.2536
0.10332199 0.44919595 1.24722
0.1113725 0.47242248 1.247775
0.11359813 0.48863438 1.2500938
0.116178 0.51159251 1.2506549
0.11586059 0.53219527 1.2513295
0.12103 0.52744001 1.2479
0.11373351 0.54930598 1.24982
0.1106884 0.57065034 1.2497722
0.098918997 0.59723002 1.2509
0.10421699 0.58792597 1.249985
0.093392797 0.6106931 1.2504243
0.077564873 0.63651127 1.24965
0.084799066 0.62711942 1.2484875
0.059260253 0.65722752 1.2492499
0.06740468 0.64822036 1.251352
0.12677 1.5871 1.242
0.14706001 1.586 1.2595
0.10638666 0.45473996 1.2665668
0.11096182 0.47148362 1.2706546
0.11304642 0.48748574 1.2710785
0.11558333 0.51153553 1.2706445
0.11631834 0.52999836 1.2717667
0.11412046 0.54843611 1.2696856
0.11012173 0.56964391 1.2687174
0.098914005 0.59781253 1.27265
0.10358723 0.58943009 1.2703668
0.093053319 0.61058366 1.2697638
0.077252544 0.63611639 1.2693362
0.08427757 0.62692624 1.2702475
0.056145001 0.65771997 1.2713
0.067554653 0.64731443 1.270574
0.13299333 1.5870333 1.2720333
0.19822 1.5864 1.2685
0.10422 0.45299718 1.2908572
0.11070573 0.47323996 1.2924429
0.11361773 0.49012861 1.2907727
0.11581612 0.50978339 1.2905333
0.1164942 0.52925211 1.2904263
0.11334126 0.54967958 1.2893541
0.10859165 0.57103008 1.2893876
0.098761424 0.59524143 1.2883713
0.10310061 0.58813882 1.2918562
0.093489692 0.60988373 1.2902842
0.076740362 0.63534093 1.2909
0.085095063 0.62506998 1.2903557
0.057726111 0.65670449 1.2894778
0.066283301 0.64827502 1.2895701
0.13703001 1.5869333 1.2926333
0.14102 1.5874 1.2956001
0.10569 0.458345 1.3097249
0.11025999 0.47293374 1.3101875
0.11416501 0.493339 1.3087
0.1157109 0.51100546 1.3077
0.11578188 0.52954191 1.3107748
0.11365227 0.55157453 1.3091273
0.10831999 0.57146478 1.309656
0.098004386 0.59622878 1.31075
0.10271786 0.58707935 1.3097073
0.093149997 0.60946596 1.3090318
0.076468661 0.63597137 1.3086468
0.084237881 0.62574118 1.3099529
0.05777825 0.65798247 1.310025
0.067134731 0.64813274 1.3102318
0.14203501 1.5871999 1.3044
0.10376 0.45155999 1.3256
0.10700428 0.46654716 1.3263571
0.11341455 0.49418733 1.3273546
0.11598933 0.51056534 1.3277398
0.11524273 0.52976686 1.3308091
0.11356333 0.54993755 1.3295542
0.10930751 0.56922209 1.329875
0.098701 0.596865 1.3340501
0.10411143 0.58785522 1.3302763
0.093791738 0.60942137 1.3293144
0.076330706 0.63598394 1.3311601
0.083718888 0.62700218 1.3295667
0.057970092 0.65621543 1.3296
0.067143768 0.64725232 1.3291136
0.16911 1.5871 1.3226
0.10893 0.45828 1.3444
0.11023 0.47251341 1.3489333
0.11402 0.4918786 1.3482429
0.11601187 0.51062876 1.34805
0.11502109 0.53045893 1.3506167
0.11312826 0.55078912 1.3502566
0.10971124 0.56959289 1.34905
0.098796003 0.59738195 1.3470401
0.10321167 0.58835882 1.3497276
0.09356159 0.61062539 1.3497958
0.076634713 0.63473356 1.3517501
0.084376 0.62661946 1.3499721
0.058053833 0.65629828 1.3524333
0.067290857 0.64669627 1.3506476
0.22268 1.587 1.3579
0.10602 0.45941001 1.3789001
0.10959834 0.46983337 1.3709334
0.11303533 0.48837665 1.3708732
0.11460166 0.51161999 1.3712416
0.11505315 0.52871788 1.3705263
0.11336001 0.5475238 1.3694571
0.1092608 0.56932443 1.3701601
0.097908542 0.59650546 1.3709091
0.10348286 0.58649516 1.3693619
0.093065888 0.61052066 1.3700441
0.076075383 0.63556612 1.3699155
0.084252812 0.62553132 1.3706069
0.057273667 0.65654504 1.3710915
0.066606499 0.64726716 1.3698109
0.1326075 1.586825 1.372125
0.22160999 1.58665 1.3617001
0.10703 0.45754001 1.3812
0.109725 0.4733642 1.3913499
0.113913 0.48957601 1.38695
0.11501565 0.51029038 1.3891914
0.11434177 0.53096056 1.3896825
0.11266999 0.55154902 1.39079
0.10871914 0.56822348 1.3896044
0.099045001 0.59560502 1.3873
0.10283357 0.58655423 1.3890358
0.091921568 0.61142892 1.3888748
0.075588331 0.63510156 1.3903668
0.082704201 0.62642735 1.39048
0.057432335 0.65645337 1.3897834
0.066599712 0.64702612 1.3897109
0.133 1.5865 1.3832
0.17992 1.586 1.3926001
0.20240501 1.58585 1.3941
0.1056 0.45840666 1.4086332
0.10925 0.47021663 1.4054
0.11374643 0.49065071 1.4112357
0.11463889 0.51003271 1.4096055
0.11507445 0.53028941 1.4100499
0.11201739 0.54985565 1.4097303
0.1074792 0.5710935 1.409536
0.097498663 0.59707999 1.4061667
0.10309077 0.58870924 1.4087039
0.091993369 0.61119425 1.409132
0.0761806 0.63500267 1.4101001
0.08369077 0.62567383 1.4100692
0.057424568 0.65664715 1.4097145
0.066151693 0.64793921 1.4106565
0.13132 1.5882 1.4195
0.14894 1.5872999 1.4177999
0.192265 1.5868001 1.41775
0.21063334 1.5864667 1.4099666
0.10560572 0.45549431 1.431343
0.10856534 0.4678947 1.4295
0.11302236 0.48966885 1.4289118
0.11465313 0.50974691 1.4303875
0.1151345 0.53033894 1.430205
0.11352824 0.5496918 1.4309353
0.10770895 0.56993693 1.4299896
0.098517366 0.59573549 1.4307635
0.10271437 0.5874331 1.4309125
0.092474632 0.6099779 1.4301
0.075600386 0.63639998 1.430846
0.083827682 0.625175 1.4307812
0.066050909 0.64749002 1.428919
0.14749999 1.5869 1.4217
0.1935 1.5869 1.42
0.105988 0.45723599 1.4493802
0.10951693 0.47158691 1.449046
0.11204784 0.49143717 1.4486786
0.1150445 0.50946701 1.450495
0.11475555 0.52814728 1.4486556
0.11221905 0.54964286 1.4501621
0.108429 0.56973755 1.4494951
0.097601123 0.5963425 1.4521874
0.102472 0.58809537 1.4510332
0.092387266 0.60990077 1.4501271
0.076060005 0.6338253 1.4512
0.083217382 0.62590611 1.4495461
0.066698834 0.6464507 1.447578
0.15321 1.5867 1.4449
0.2015 1.5865999 1.4563
0.22406 1.5871 1.4448
0.1050775 0.4569675 1.474525
0.10794111 0.4675878 1.4705777
0.11241191 0.48933524 1.4707953
0.11443722 0.50949442 1.4681388
0.11390287 0.52922714 1.4686716
0.111814 0.55053353 1.4703879
0.10708261 0.57114089 1.4700478
0.098286085 0.59548002 1.4684182
0.102052 0.58714801 1.4706935
0.09190283 0.61019462 1.4706606
0.074964002 0.63457251 1.4689189
0.083452083 0.62440783 1.469793
0.065319054 0.64736891 1.4690949
0.16760333 1.5873333 1.4773332
0.19156 1.5876 1.4749
0.10509667 0.45613 1.4924001
0.10859334 0.470276 1.4895933
0.11272334 0.49065462 1.4902465
0.11388499 0.51013166 1.4897083
0.11392 0.53045893 1.4888332
0.1110319 0.54821098 1.4894905
0.10660914 0.57037914 1.4902126
0.098399639 0.59600729 1.4875546
0.10196857 0.58605081 1.4908787
0.091655411 0.61035997 1.4904109
0.074904002 0.63426656 1.4890263
0.083601005 0.62399334 1.4898778
0.065851457 0.64756048 1.48959
0.16625001 1.5868 1.4834
0.10260667 0.45218441 1.5078555
0.10769 0.47151458 1.5083183
0.11289201 0.49220952 1.51148
0.11469077 0.51047844 1.5111769
0.11416905 0.53005427 1.5098333
0.11167364 0.55114686 1.5094317
0.10661166 0.57171339 1.5083919
0.097630471 0.5946508 1.5112383
0.10201 0.58696312 1.5078812
0.091232434 0.60985351 1.5106913
0.074345939 0.63489813 1.509725
0.084048644 0.62478292 1.5081285
0.066067643 0.64600712 1.5108998
0.147662 1.58638 1.50936
0.102748 0.45121402 1.53336
0.10810091 0.46915817 1.5303456
0.11221334 0.48917595 1.5310198
0.11335522 0.51091874 1.5299132
0.11328445 0.53079391 1.527189
0.11073601 0.54949963 1.530012
0.10661463 0.56992537 1.5315578
0.097780898 0.59528303 1.5317301
0.101638 0.58691871 1.5308132
0.090931624 0.60954195 1.5306034
0.075018108 0.63387102 1.5298736
0.082916394 0.62451899 1.52914
0.065607101 0.64603156 1.531037
0.15682 1.5863 1.5393
0.20994 1.5862 1.52545
0.097351998 0.444855 1.5555501
0.10391857 0.45387286 1.5502001
0.10897 0.47161499 1.5481899
0.11225834 0.48841417 1.5501332
0.11471187 0.50937498 1.5481874
0.11309429 0.52997798 1.5497524
0.1102555 0.55062896 1.548345
0.10703278 0.57092327 1.5511279
0.097889334 0.5940578 1.5492779
0.10301153 0.5860554 1.550123
0.091708668 0.61010557 1.5517335
0.075124748 0.63379312 1.5507063
0.083061337 0.6244989 1.5497111
0.066075049 0.64604527 1.5497473
0.1577 1.5863 1.5415
0.17082 1.5859001 1.5509
0.18185 1.5862 1.5434
0.20415001 1.5861 1.5433
0.09725 0.44446498 1.56215
0.103842 0.45534596 1.5689099
0.107864 0.469515 1.57067
0.11136811 0.49031314 1.5692126
0.11319278 0.51066774 1.5693833
0.113624 0.530846 1.5704067
0.11037335 0.55018568 1.5677191
0.10642576 0.57050002 1.5696959
0.098352127 0.59574002 1.5698
0.10218883 0.58686769 1.5697999
0.09035638 0.61004668 1.5694963
0.075020649 0.63206851 1.569465
0.083266161 0.62290835 1.5692501
0.064937003 0.64546055 1.5692843
0.16552 1.5857999 1.571425
0.18764 1.58555 1.5719
0.2137325 1.585925 1.5747499
0.10407286 0.45525572 1.5906
0.10712417 0.46909416 1.5894083
0.11193749 0.492645 1.5925833
0.113841 0.50882304 1.5885599
0.11302149 0.5292815 1.58971
0.11084476 0.54996526 1.5912763
0.10622075 0.57146811 1.589974
0.098020352 0.59279531 1.5899234
0.101686 0.58623201 1.5897899
0.091286071 0.6086092 1.5896682
0.075277053 0.6331023 1.5898411
0.082209505 0.62488335 1.5885834
0.065570801 0.64503342 1.5895933
0.14736 1.586 1.5828
0.18601999 1.5848501 1.5811501
0.21464001 1.5857 1.5831
0.10174201 0.45215598 1.6117599
0.10817334 0.47211418 1.6088166
0.11124699 0.48981398 1.6101549
0.11386239 0.51042527 1.6105236
0.1136052 0.52988082 1.6103241
0.11152647 0.55034006 1.6097941
0.10619959 0.56880581 1.6094252
0.09744101 0.59435993 1.6083499
0.10213538 0.58583236 1.6115152
0.090402082 0.60922641 1.6092001
0.074414253 0.63404959 1.608821
0.083386198 0.62281197 1.6090797
0.064824671 0.64566892 1.6097944
0.13662 1.5864 1.6117001
0.15588 1.5856 1.6127
0.18346 1.5858999 1.6181999
0.098138332 0.44407001 1.6363333
0.10209888 0.45041335 1.6275111
0.10685466 0.470458 1.6323867
0.11163842 0.49130845 1.629721
0.11319883 0.50985646 1.6314175
0.11278571 0.53153336 1.6307046
0.1103279 0.55021209 1.6290684
0.10621583 0.56977588 1.6310874
0.097471677 0.59408534 1.6295668
0.10187899 0.586227 1.62801
0.089589536 0.61023211 1.6306418
0.074166365 0.63229269 1.6304818
0.081802569 0.62299144 1.6317288
0.064707436 0.6449731 1.6301003
0.1461 1.5862 1.6374
0.16536 1.5856 1.6381
0.18387334 1.5856333 1.6230334
0.213085 1.5857 1.6379
0.0967995 0.43854499 1.65055
0.096102998 0.44345501 1.64855
0.10383125 0.45552251 1.6520002
0.1081125 0.46982744 1.64855
0.11172133 0.49133337 1.6510265
0.11319462 0.50751996 1.6490769
0.1117827 0.53132081 1.6502421
0.10963761 0.55125093 1.6515334
0.10599095 0.56917864 1.6496905
0.097437501 0.59274054 1.6488777
0.10202333 0.58549333 1.6484222
0.088255957 0.61060995 1.6492321
0.074737735 0.63276041 1.6496259
0.082179502 0.62280327 1.6526499
0.064189538 0.6455546 1.6490154
0.12918 1.5865999 1.6495
0.16876 1.5854001 1.64845
0.18905 1.58525 1.643
0.099823996 0.43967 1.6635
0.098896749 0.44220501 1.67235
0.103756 0.45571604 1.6676
0.10860617 0.47195002 1.6702307
0.11138177 0.49127585 1.6720469
0.11311306 0.50989652 1.6695566
0.11303858 0.53053761 1.6715715
0.10913857 0.54969811 1.6703477
0.10468096 0.5699895 1.6708763
0.097803704 0.59267914 1.6699046
0.10139167 0.58520001 1.6651
0.088703319 0.60973144 1.6677449
0.073669039 0.63426918 1.6700737
0.081942767 0.62486148 1.670377
0.064223863 0.64489931 1.6697733
0.15645 1.5852499 1.6786001
0.099366002 0.44716001 1.6942
0.103845 0.4560225 1.696075
0.10752334 0.47003397 1.6905934
0.11185867 0.49172264 1.69074
0.11323611 0.51144671 1.6906
0.11236412 0.53045768 1.6905707
0.10919416 0.55123878 1.6904958
0.10616799 0.56863046 1.6902199
0.097473107 0.59068316 1.6891263
0.10175555 0.5828833 1.6929556
0.088792838 0.61021209 1.6897368
0.073158242 0.6325047 1.6896001
0.081532501 0.62309498 1.6904168
0.063562088 0.64570165 1.6916581
0.14739667 1.5855335 1.6913333
0.18587001 1.5857 1.6856333
0.20879 1.5851251 1.69225
0.098623998 0.43979999 1.7111
0.099793002 0.45186999 1.7029999
0.1020875 0.45266747 1.71155
0.10794999 0.47307569 1.703957
0.11175847 0.49170998 1.7102846
0.11323863 0.5110268 1.7098273
0.11148429 0.52905101 1.7107522
0.10941564 0.54909879 1.710013
0.099509001 0.57967001 1.716
0.10533333 0.56885916 1.7100834
0.096890345 0.5928359 1.7098823
0.10234 0.58381379 1.7105875
0.078782 0.6182 1.7135
0.088479556 0.61046451 1.7090555
0.075653434 0.62983042 1.7091869
0.081734002 0.62070197 1.7057402
0.065952912 0.64334333 1.71255
0.21365198 1.5850201 1.7057798
0.22040999 1.5854499 1.7151999
0.094524331 0.43659997 1.7312666
0.097654335 0.44500163 1.7307334
0.10216001 0.45469376 1.7277374
0.1081191 0.47294 1.7281636
0.10997733 0.48808601 1.7312666
0.11264455 0.50839913 1.7302819
0.11201584 0.52956498 1.7308874
0.10860096 0.54972672 1.7309191
0.10392618 0.57051188 1.7298143
0.09653341 0.59263414 1.7298135
0.10134251 0.58315498 1.7304374
0.088274807 0.61068457 1.7307483
0.074441463 0.63128203 1.7301832
0.08174134 0.62332666 1.7301999
0.0640826 0.64627802 1.7303799
0.22966 1.5853 1.7395
0.093986496 0.43507499 1.7501249
0.099088997 0.44297498 1.7589
0.103165 0.45503998 1.7466999
0.106745 0.47086796 1.74812
0.11142154 0.49124151 1.7495154
0.11305571 0.50967079 1.7493216
0.11214 0.52954847 1.7506579
0.10909709 0.55050033 1.7497168
0.099904999 0.57898998 1.7507
0.10450149 0.56975853 1.75051
0.096772239 0.59122795 1.7495552
0.10157833 0.58229333 1.7488834
0.089133441 0.61072481 1.7500201
0.072027914 0.63345498 1.750021
0.081150711 0.62312853 1.75
0.063372098 0.64380002 1.7486101
0.17154999 1.5850334 1.7540334
0.18607999 1.585 1.7502999
0.22713 1.5846667 1.743
0.092016399 0.42871204 1.76612
0.099283002 0.44822669 1.7677001
0.10271334 0.45374003 1.7671
0.10707445 0.47171777 1.7689667
0.10965899 0.48540896 1.7699101
0.11222528 0.50921947 1.7683316
0.1111119 0.5308857 1.7686189
0.10819858 0.55019528 1.7704427
0.10550363 0.56973988 1.7683501
0.096321762 0.59101897 1.7703143
0.10250799 0.58311403 1.76938
0.087733895 0.61031878 1.7696291
0.073960334 0.63132328 1.7708259
0.0820508 0.62186003 1.7711201
0.063979775 0.64335227 1.7695889
0.14589 1.5847499 1.77405
0.16834 1.5852 1.7629
0.191285 1.5850999 1.76135
0.21349333 1.5848001 1.7619333
0.091191202 0.428662 1.7882801
0.099588335 0.45239666 1.7858667
0.10245856 0.45316714 1.784757
0.10689001 0.47089306 1.7911001
0.11104834 0.49195829 1.7877833
0.11181181 0.50866914 1.7908455
0.111212 0.53153604 1.7910933
0.10818619 0.54988426 1.7898382
0.099279001 0.57979 1.7853
0.1040407 0.5698272 1.7904965
0.0959512 0.59076047 1.7912149
0.101395 0.58114004 1.7853501
0.087925337 0.60964823 1.7904565
0.073144324 0.63110477 1.7904046
0.081522338 0.62194997 1.7898334
0.063917398 0.64324802 1.7899301
0.15260333 1.5848666 1.7858334
0.18539 1.585 1.7999001
0.22357 1.58435 1.7905334
0.085052997 0.41852 1.8132
0.089145996 0.42297164 1.8080667
0.098232575 0.44566426 1.8093144
0.101425 0.44935 1.8067501
0.10629126 0.46999252 1.8102813
0.10963721 0.48942778 1.8098278
0.11195688 0.50870818 1.8107562
0.11153 0.53014684 1.8091159
0.10883045 0.55041999 1.8101132
0.099967003 0.57722002 1.8113
0.10448922 0.56860071 1.8105924
0.095250756 0.59173191 1.8112811
0.101236 0.58204001 1.81054
0.079735003 0.61760002 1.8184
0.086233906 0.61101222 1.8095419
0.073323116 0.63032424 1.8111087
0.062889546 0.64488453 1.8088909
0.14227501 1.5848 1.81745
0.18329999 1.58465 1.8020999
0.083141506 0.41469499 1.8317001
0.094182 0.43268999 1.8348
0.098285995 0.4451775 1.8268001
0.1018025 0.45451999 1.8290999
0.10576 0.46814004 1.8273364
0.11056412 0.4913412 1.8295413
0.1120487 0.51078039 1.8303218
0.11051 0.53060758 1.8293141
0.10735556 0.54929167 1.830489
0.098817497 0.57859004 1.83415
0.10377667 0.57029188 1.8289666
0.095863573 0.59150207 1.8305792
0.100705 0.58318496 1.8266499
0.079456002 0.61732996 1.8293
0.08720392 0.60907513 1.8291
0.072831534 0.6313504 1.8307542
0.08038 0.62242496 1.83155
0.063765749 0.64420253 1.8296251
0.14650333 1.5844001 1.8323666
0.095418334 0.43648002 1.8516001
0.097231001 0.44495201 1.8489802
0.1025025 0.45758501 1.853025
0.10572858 0.47099218 1.8519287
0.1095448 0.4895348 1.8512261
0.11144446 0.5092389 1.8484167
0.1101725 0.53205407 1.8494701
0.10735953 0.55095953 1.8488228
0.097240999 0.57981998 1.855
0.10321571 0.57046002 1.8504333
0.096555561 0.59065402 1.8515842
0.10001 0.58274001 1.8461
0.085693389 0.61042702 1.85085
0.072941549 0.63052446 1.8501064
0.081641495 0.62123501 1.8478
0.063467249 0.64310998 1.8497
0.15395667 1.5842333 1.8496333
0.17474334 1.5834001 1.8523334
0.20713 1.5847499 1.8482499
0.072760999 0.40145001 1.873
0.084538206 0.41593799 1.8711001
0.094339997 0.437525 1.87555
0.10053501 0.45379502 1.87445
0.10478751 0.46992585 1.8714916
0.10917 0.49148723 1.8715817
0.11120363 0.51000142 1.8691503
0.11042573 0.53043574 1.8692238
0.10758545 0.55053908 1.868
0.099340342 0.57738334 1.8708
0.10338375 0.56941807 1.8717376
0.096018873 0.59163004 1.8712807
0.10144 0.58016998 1.8722
0.079764001 0.61704999 1.8621
0.086410277 0.6099062 1.8709733
0.073291302 0.63037819 1.8693521
0.080072999 0.62035 1.8755
0.063326575 0.64404291 1.8706213
0.1927 1.584 1.878
0.21696499 1.584375 1.873525
0.091980003 0.43143499 1.8831
0.097642004 0.44681001 1.89855
0.1008225 0.45716247 1.888025
0.105143 0.47187296 1.8876202
0.10871614 0.49154615 1.8888155
0.11126353 0.51097351 1.8915764
0.110578 0.53057349 1.8878349
0.10704166 0.5508967 1.8893331
0.098162755 0.57636249 1.8891
0.10376166 0.56882215 1.8882279
0.095153086 0.58999497 1.8899927
0.079838499 0.61644995 1.8852999
0.086582594 0.60846138 1.8902001
0.07183785 0.63010955 1.8890193
0.1487 1.5838 1.8942
0.19469666 1.5833 1.8916334
0.0626425 0.38818502 1.9122
0.084582493 0.4174625 1.909775
0.093597129 0.43247998 1.9090625
0.098281555 0.44735664 1.9090887
0.1014675 0.455715 1.908725
0.10494889 0.46871555 1.9091555
0.10882 0.49129766 1.9115237
0.110254 0.50856304 1.90842
0.11039715 0.52985716 1.9105713
0.10734858 0.54961967 1.9100429
0.098248333 0.57664341 1.9116668
0.10378261 0.56859434 1.9108741
0.094442531 0.59002322 1.9112684
0.1002 0.58183002 1.9072
0.086179316 0.60918719 1.9116763
0.073332004 0.62934494 1.9102374
0.082087003 0.62033999 1.9193
0.13275333 1.5845 1.9042667
0.17935 1.58365 1.90525
0.18021999 1.5841 1.9
0.066046998 0.39218 1.9355
0.078865997 0.41205001 1.9347
0.090623997 0.42899168 1.9327167
0.098765001 0.44729251 1.9290999
0.100815 0.4519875 1.929075
0.10587923 0.47181541 1.9304694
0.10835375 0.48842749 1.9315939
0.11008091 0.50921768 1.9304274
0.10959841 0.52905631 1.9314579
0.10696367 0.55071479 1.9305843
0.099345252 0.57643497 1.9312749
0.10261683 0.57041103 1.9300475
0.094002508 0.59249711 1.9300293
0.10015 0.58454001 1.938
0.078395002 0.61832333 1.9345001
0.085053913 0.60916048 1.9290866
0.071724966 0.63021898 1.9297863
0.22274999 1.5841 1.933
0.088948995 0.42721999 1.9493999
0.0972142 0.44744 1.95084
0.10134666 0.45688 1.9488665
0.105112 0.468153 1.9481401
0.108096 0.48965532 1.9472599
0.110141 0.50942403 1.94867
0.10954624 0.52975631 1.9481624
0.10594946 0.54883945 1.9499154
0.099034749 0.57861 1.947825
0.10218444 0.56781989 1.9493891
0.095557235 0.588911 1.949809
0.07840275 0.61779249 1.9461499
0.085723214 0.6097641 1.9497001
0.070455007 0.63048911 1.9483418
0.081205003 0.62005001 1.9503
0.20653 1.5832 1.9596
0.21961001 2.2060499 1.95375
0.24038 2.2054999 1.9525
0.27811497 2.2017498 1.9503
0.082779668 0.41523668 1.9631333
0.091116302 0.43174401 1.9654999
0.095840998 0.44471666 1.9646834
0.10052 0.45886001 1.9645
0.10686625 0.47327501 1.9696627
0.10844813 0.48926753 1.9690313
0.1088681 0.50984669 1.9684904
0.10911278 0.53151447 1.9683056
0.1059365 0.55059445 1.9696801
0.098535001 0.57827002 1.9710751
0.10218401 0.56959194 1.9704267
0.093880631 0.59056836 1.9711738
0.078404747 0.6165275 1.9701
0.085935466 0.60749263 1.9708158
0.071979754 0.62926626 1.9714208
0.13846999 1.5838333 1.9691666
0.14783667 1.5838332 1.9694
0.16114999 1.5835 1.967
0.186085 1.583125 1.9699249
0.211825 1.5831001 1.9698
0.191135 2.2072501 1.9757
0.067941003 0.39403 1.9936
0.082596242 0.41579998 1.988975
0.090548091 0.43097249 1.9916331
0.098098755 0.45098874 1.9920125
0.10122667 0.45529667 1.9872333
0.099932998 0.46410999 1.9914
0.10390589 0.47094524 1.9902471
0.10807538 0.4918054 1.9903308
0.10981572 0.50813073 1.987543
0.10917765 0.52902001 1.9903351
0.10683368 0.54898053 1.9902526
0.098623596 0.57707393 1.9905401
0.10306001 0.56895834 1.9897481
0.093596905 0.58974177 1.9910173
0.10005 0.58160001 1.9865
0.078758001 0.61838669 1.9878334
0.085336886 0.6089952 1.9895477
0.071468964 0.63026404 1.9902337
0.080201 0.62282002 1.9907
0.13744 1.5827999 1.9808
0.188555 2.20755 1.9821
0.091098666 0.43037 2.0040665
0.098948419 0.45197567 2.0130286
0.10063 0.45179 2.0041001
0.099535003 0.46399999 2.00475
0.10425181 0.47179365 2.0115454
0.108415 0.49125502 2.0101929
0.10842168 0.5101667 2.0108416
0.10876571 0.53024137 2.0093429
0.10586818 0.54858863 2.0102456
0.097804405 0.57743007 2.0114999
0.10263858 0.56826288 2.009686
0.093542181 0.59052366 2.0096276
0.10163 0.58054 2.0129001
0.07917425 0.61742246 2.0124249
0.085258991 0.60905147 2.0087748
0.070524268 0.63019764 2.0105155
0.18645 1.5832 2.01265
0.21037 1.5826 2.0174999
0.23157501 1.5828 2.0081501
0.20911001 2.2063 2.0097001
0.23538667 2.2048666 2.0039666
0.093051001 0.43965 2.0272999
0.099743001 0.45609 2.0334001
0.10011 0.45679 2.0311999
0.10421667 0.47155917 2.028425
0.10617909 0.48808366 2.0328908
0.10954538 0.51112765 2.028554
0.10808688 0.52999437 2.0299439
0.10538875 0.55229813 2.0309064
0.098261498 0.575782 2.0307901
0.10285445 0.56569839 2.0293224
0.093205214 0.59023476 2.0309393
0.078712396 0.61653006 2.0346198
0.08535248 0.60780382 2.0284429
0.069637902 0.62980807 2.0292866
0.13768999 1.5829999 2.0239
0.16387667 1.5821 2.0328
0.182675 1.5817 2.0256
0.22481999 2.20625 2.0292499
0.273 2.2026665 2.0291665
0.076751001 0.40691 2.0425
0.093135506 0.43748498 2.0518999
0.096346691 0.44777203 2.04813
0.10136 0.45328999 2.0532
0.099213004 0.46240002 2.05285
0.10290539 0.46878925 2.0500767
0.10697071 0.48968998 2.050164
0.10839589 0.50915706 2.0509057
0.10809434 0.52967477 2.0500302
0.10603534 0.54984665 2.0507934
0.098232836 0.57454926 2.0494537
0.10210083 0.56668085 2.0500834
0.093289696 0.5897913 2.0504091
0.078295134 0.61642283 2.0486286
0.084626213 0.60689163 2.0504789
0.072268941 0.62875378 2.0491102
0.16697249 1.581475 2.0462999
0.27902502 2.20295 2.05055
0.075147003 0.40472999 2.0743001
0.083506003 0.41648 2.0709
0.091277726 0.43436453 2.0694547
0.096450664 0.44886002 2.0718668
0.10169 0.45942 2.0757
0.10264699 0.46809196 2.0695598
0.10745785 0.49009854 2.0710356
0.10828889 0.51052445 2.0698776
0.10758094 0.53025472 2.0711668
0.10518811 0.55116475 2.0693142
0.097367503 0.57668597 2.06881
0.10158534 0.56718665 2.07126
0.092038214 0.59081995 2.0704522
0.077597298 0.6166786 2.0683572
0.084957466 0.6068148 2.0690737
0.070067786 0.62983102 2.0709283
0.15116 1.5947 2.0743001
0.19054 1.5962 2.0718
0.22500999 1.5972 2.0701001
0.20899999 2.2024667 2.0720999
0.221265 2.20245 2.0722499
0.27943 2.2018001 2.0604999
0.07677 0.40617001 2.0854001
0.094076999 0.43906498 2.09235
0.096968137 0.44946572 2.0904858
0.10160001 0.45750999 2.0847001
0.098568 0.47095999 2.0857
0.10194584 0.46632919 2.0894334
0.10745215 0.4913564 2.0901859
0.10775444 0.51184994 2.0890946
0.10812501 0.53031445 2.0895948
0.10493733 0.5479933 2.0888865
0.097609334 0.57579082 2.0901749
0.10200786 0.56717783 2.0882788
0.093360715 0.58977431 2.090107
0.078112006 0.61536604 2.09077
0.084418885 0.60665232 2.0901444
0.07101129 0.62970227 2.0894594
0.13798666 1.5956001 2.0874
0.17452499 1.59645 2.08745
0.19276001 1.6185 2.0976
0.20769751 1.6043501 2.097625
0.22867 1.6223 2.0994999
0.156205 1.71755 2.0969501
0.16007 1.7176 2.0983
0.204695 1.7133999 2.09865
0.22776 1.7165999 2.0987
0.17081001 1.73645 2.0970001
0.23882 1.7373 2.0973001
0.16911 1.7407 2.0974
0.23908 1.7405 2.0994
0.21213999 1.7628 2.099
0.17631 1.8385 2.0994999
0.17974 1.8437001 2.099
0.18024001 1.8403 2.0987
0.18427999 1.8642 2.0987999
0.20624 1.8908 2.0999999
0.25319999 1.8911 2.0997
0.2384 1.9164 2.0992
0.21794 1.9408 2.0996001
0.21883 2.2026999 2.0832
0.229798 2.2018201 2.0924802
0.24044999 2.2019999 2.0855999
0.095686004 0.43961 2.1010001
0.095846251 0.44529998 2.1057999
0.10320375 0.47176003 2.1095998
0.10661182 0.49107 2.1103184
0.10808153 0.5106461 2.1113772
0.10776823 0.53123587 2.1097176
0.10431191 0.5501796 2.1103575
0.098926999 0.57381749 2.1080248
0.10125819 0.56631637 2.1091456
0.093145877 0.58972752 2.1104
0.077699214 0.61552215 2.1097443
0.085131012 0.60645401 2.1101065
0.068909474 0.63098317 2.1097839
0.23421 1.6324 2.1073
0.158905 1.8229001 2.1031499
0.23137002 1.8513999 2.1066668
0.244435 1.8698 2.1006999
0.20519 1.8874 2.1001
0.25257999 1.88695 2.10075
0.20711334 1.9143333 2.1007001
0.24084 1.918 2.1008
0.17418501 1.9316499 2.1073
0.22098 1.9561501 2.1079998
0.16761 1.9694 2.1011
0.20856667 2.0110667 2.1036
0.23441251 2.0114 2.1047001
0.25471002 2.00875 2.10655
0.22795001 2.0558 2.1057999
0.19946 2.0641999 2.1029
0.20471333 2.0647666 2.1046999
0.2468375 2.0637 2.1041
0.26987669 2.0650668 2.1059
0.18880001 2.0912001 2.1056001
0.21466333 2.0879333 2.1057999
0.22776 2.0845001 2.1089001
0.19459 2.1164 2.1054001
0.25400999 2.1145999 2.1071
0.27413997 2.1568398 2.1133399
0.18529999 2.1744335 2.1126666
0.25080001 2.1791999 2.1099
0.19351 2.1964998 2.10725
0.21516001 2.1977332 2.1065667
0.22266001 2.1963 2.10725
0.25457335 2.1818666 2.1099334
0.27196333 2.1891501 2.1089666
0.191295 2.2005 2.10255
0.224895 2.2011499 2.1039
0.26607001 2.2000999 2.1077001
0.085543498 0.41771001 2.1216502
0.092471004 0.43654001 2.1356502
0.097114719 0.45071143 2.1306429
