# .PCD v0.7 - Point Cloud Data file format
VERSION 0.7
FIELDS x y z
SIZE 4 4 4
TYPE F F F
COUNT 1 1 1
WIDTH 1537
HEIGHT 1
VIEWPOINT 0 0 0 1 0 0 0
POINTS 1537
DATA ascii
0.53630567 2.6297474 0.8086648
0.53659177 2.6497483 0.80913109
0.53690368 2.6698961 0.80932111
0.54031003 2.6700001 0.81054997
0.53663844 2.688844 0.81003755
0.5312891 2.7137582 0.80967546
0.53701961 2.7303691 0.81023717
0.53571081 2.7501922 0.81076598
0.54054999 2.7435999 0.80456001
0.53667217 2.7695086 0.81037951
0.53583848 2.7906926 0.81017393
0.53601837 2.8098762 0.80956161
0.53583771 2.8286462 0.80946064
0.53510785 2.849678 0.80886835
0.53481793 2.8701687 0.80946279
0.53438145 2.8904185 0.81023413
0.53407913 2.9103873 0.80905169
0.53416473 2.9308579 0.81070369
0.53429407 2.9498322 0.81021327
0.53395998 2.9711373 0.81172329
0.53301001 2.9902344 0.81006563
0.53275961 3.0083406 0.81032234
0.53212523 3.0287321 0.81035119
0.53125346 3.0506351 0.81046832
0.53091455 3.0687859 0.80962491
0.53148055 3.0880589 0.80976242
0.53090894 3.1100154 0.80913472
0.53050697 3.1294549 0.80971861
0.52993375 3.1434124 0.80550873
0.54505605 1.2705332 0.82986635
0.5452019 1.289763 0.83012593
0.54552889 1.3097261 0.83096433
0.54540849 1.329441 0.8293708
0.54600173 1.3499451 0.8296898
0.54624611 1.3699 0.83033055
0.54594904 1.3905516 0.82990682
0.54565871 1.4094833 0.82918435
0.54684865 1.4301364 0.83030671
0.54715508 1.4493101 0.82912898
0.54698974 1.4712821 0.82964939
0.54729539 1.4911098 0.82963508
0.54753768 1.5104065 0.83012599
0.5472585 1.5303556 0.83019853
0.54764062 1.5501323 0.8291685
0.54827154 1.5703709 0.8298555
0.54778677 1.5894282 0.82937795
0.53341222 1.6053777 0.82910991
0.54744005 1.6096001 0.82969522
0.55071032 1.6298323 0.8292132
0.55108279 1.6495515 0.83003134
0.55141455 1.6697775 0.83061069
0.55092514 1.6895379 0.83098668
0.55077875 1.7092742 0.82912517
0.54624498 1.720825 0.82643998
0.54848999 2.0958614 0.83040929
0.54950911 2.1105061 0.82882184
0.54935777 2.1302834 0.83067864
0.54937214 2.1499729 0.83101732
0.5488503 2.1695776 0.82961702
0.54993427 2.1898036 0.82977635
0.53742415 2.2101834 0.8302508
0.54267752 2.2121811 0.82950497
0.53950143 2.232357 0.82946289
0.54160637 2.22948 0.83096367
0.53970253 2.249125 0.829265
0.54146928 2.24985 0.83118767
0.53964794 2.2714903 0.82791692
0.54112947 2.2680156 0.83226418
0.53911197 2.2906599 0.83318996
0.54150873 2.2892373 0.83003306
0.53885311 2.3119187 0.82780123
0.54111129 2.3059125 0.83241248
0.53853172 2.3294611 0.83155113
0.54071605 2.33009 0.82721698
0.53900415 2.3505473 0.82951421
0.54094005 2.3481078 0.83182079
0.53869718 2.3698676 0.8290171
0.54075551 2.3702114 0.83293444
0.53902954 2.3900793 0.82940125
0.5403617 2.38925 0.82876664
0.53910333 2.4108043 0.831945
0.54087859 2.4077857 0.82563573
0.53853041 2.4309261 0.83084792
0.54070199 2.4296701 0.83030796
0.53813773 2.452136 0.83033854
0.54107171 2.4456999 0.8250683
0.53848535 2.4694667 0.83000875
0.54039001 2.4654002 0.82801497
0.53834969 2.4891932 0.83036274
0.53755993 2.5106034 0.82888037
0.53757638 2.5307269 0.82926762
0.54070997 2.5297999 0.83389002
0.53735799 2.5507483 0.83048964
0.53752309 2.5704346 0.83012879
0.54026997 2.5718999 0.82424998
0.53712416 2.5902481 0.83131659
0.53738189 2.6103003 0.83029646
0.54003 2.6108 0.83436
0.53699583 2.6296868 0.82953429
0.53656447 2.6495895 0.82924169
0.53631717 2.6691692 0.83015102
0.53671479 2.689476 0.83029824
0.53124642 2.712728 0.83148718
0.53770459 2.7283919 0.82947868
0.54042 2.7393 0.82625002
0.53648365 2.7507966 0.83070672
0.53730339 2.7690344 0.82963049
0.53568184 2.7906859 0.82966751
0.53590924 2.8106267 0.83136153
0.53591347 2.8283241 0.82970977
0.53540963 2.8511839 0.82945663
0.53524673 2.870928 0.82986277
0.5349769 2.8908436 0.82992858
0.53449118 2.9099538 0.82993913
0.53425187 2.9285579 0.82881474
0.53342885 2.9494879 0.83015478
0.53274518 2.9695199 0.83009279
0.53265637 2.9894783 0.8308571
0.53340214 3.0095084 0.83028245
0.53233099 3.0305476 0.83108902
0.53233778 3.0500083 0.83045304
0.53166437 3.0694642 0.82965279
0.53125089 3.089565 0.83067435
0.53112048 3.1095228 0.8291918
0.53082281 3.1283555 0.83013111
0.54493296 1.249674 0.85034031
0.54506373 1.26837 0.85094708
0.54528391 1.2901291 0.84937507
0.54544365 1.3097867 0.84949672
0.54602903 1.329 0.85000908
0.54579818 1.3496971 0.84985799
0.54604179 1.3693765 0.85070914
0.54613149 1.3896126 0.84973991
0.54688966 1.4108167 0.84952295
0.5467093 1.4297732 0.85049087
0.54675198 1.4505373 0.85002697
0.54800379 1.4700551 0.8499428
0.54717535 1.49 0.84870106
0.54825419 1.5108258 0.84966254
0.54775006 1.5304037 0.84931833
0.54772288 1.5501857 0.84962344
0.54774392 1.5701259 0.85025197
0.54820424 1.5894233 0.85020512
0.53525406 1.60574 0.84831399
0.54795724 1.6100601 0.84985089
0.551112 1.6301939 0.85095352
0.55148578 1.6498251 0.84849453
0.55144161 1.670671 0.84962064
0.55160314 1.6913261 0.85008413
0.55100447 1.7095324 0.84979361
0.5470283 1.7219166 0.85119325
0.53729999 1.992 0.85702997
0.54891735 2.0957398 0.85010612
0.54943025 2.1102002 0.85112572
0.54917753 2.1302342 0.85059625
0.54950845 2.1507888 0.85048991
0.54964697 2.1706641 0.84905815
0.54927969 2.1899426 0.84958935
0.53799272 2.2113726 0.85030997
0.54431999 2.2096312 0.84864688
0.539105 2.2303667 0.84772009
0.54151559 2.2286589 0.85116929
0.53981501 2.2502499 0.85089999
0.54139304 2.2498271 0.85082835
0.53916568 2.2714999 0.85115141
0.54172522 2.2688479 0.85022086
0.53943253 2.2910874 0.85076874
0.54118276 2.2897456 0.8500126
0.53911215 2.309093 0.84981787
0.54119104 2.3087208 0.84830475
0.53906101 2.3307452 0.84905547
0.540658 2.328573 0.85012269
0.53873056 2.3492942 0.85049224
0.54069269 2.3521364 0.85083544
0.53919858 2.3693995 0.85068846
0.54070145 2.3705285 0.85127002
0.53887892 2.389874 0.85157365
0.54067665 2.3908334 0.84819669
0.53794712 2.4089291 0.84929007
0.54075855 2.412657 0.84996283
0.53816402 2.4310777 0.84913862
0.54024285 2.4263713 0.85295856
0.53820628 2.4496698 0.84811759
0.54043746 2.45225 0.85681248
0.53836703 2.4697521 0.84957659
0.54104501 2.4737999 0.85258001
0.53771698 2.4897661 0.85069984
0.54104996 2.4821 0.849585
0.53825891 2.5099001 0.85093468
0.54031998 2.5153 0.84838003
0.53811193 2.5301075 0.84954375
0.54100001 2.5220001 0.84899998
0.53808415 2.5496914 0.85014081
0.54042 2.5439999 0.84508997
0.5374167 2.5702212 0.84944355
0.53688872 2.5904081 0.85094726
0.53677183 2.6100214 0.84973717
0.53652394 2.6299536 0.85089642
0.5368315 2.64854 0.84951049
0.53666884 2.6679752 0.84866661
0.53618735 2.6898117 0.84974349
0.53212106 2.71245 0.85081965
0.53665698 2.7295835 0.85057992
0.53616351 2.7503204 0.85036719
0.53642619 2.7700574 0.85097206
0.53655833 2.7900293 0.85039043
0.53548867 2.8109498 0.8506363
0.53493494 2.8315771 0.8493827
0.53501326 2.8504622 0.85002536
0.53420138 2.8698676 0.84936577
0.53468663 2.8894482 0.84978634
0.53393394 2.9101045 0.85122555
0.53389657 2.9296305 0.85134441
0.53330946 2.9496262 0.85069317
0.53343588 2.9693823 0.84850889
0.53263229 2.9901183 0.850851
0.53252912 3.0097268 0.85034949
0.53277379 3.0287414 0.85026896
0.5313825 3.051044 0.84908497
0.53161657 3.0690286 0.84878993
0.53095955 3.0884864 0.85027504
0.53072196 3.1094999 0.85045606
0.53148901 3.1231501 0.84897405
0.54487032 1.2298839 0.87076837
0.54467285 1.2496414 0.87172735
0.54495192 1.2704501 0.87026906
0.54498297 1.2902669 0.86955035
0.54454887 1.3104883 0.86983079
0.54571027 1.3308781 0.87036651
0.54517812 1.3498303 0.86941367
0.5454877 1.3706955 0.86921948
0.54601157 1.3899657 0.86923277
0.54603779 1.4107029 0.86929226
0.54645532 1.4299858 0.8702358
0.54703754 1.4496945 0.87126356
0.5470404 1.4708076 0.87016881
0.54789644 1.4897757 0.86883551
0.54774064 1.5103874 0.86959714
0.54779166 1.5299647 0.87041581
0.54781944 1.5493971 0.87118644
0.54791838 1.5695486 0.86965936
0.5479337 1.5896362 0.86916399
0.53334492 1.60545 0.87199372
0.54779339 1.6102588 0.87023586
0.5508787 1.6304291 0.87024325
0.55163199 1.6505933 0.86971569
0.55158305 1.6697665 0.86883819
0.55100709 1.6902517 0.86821097
0.55122799 1.7101774 0.86994028
0.55026346 1.7282436 0.87167221
0.55135125 1.7504292 0.87211257
0.55068529 1.7695684 0.87271529
0.55119634 1.7894591 0.87350732
0.55094653 1.8104087 0.87368906
0.55121839 1.8293161 0.87323952
0.55069536 1.8496956 0.8739832
0.55116528 1.8712218 0.87444079
0.55088681 1.8901092 0.87234133
0.55039519 1.9093839 0.87390196
0.55080682 1.9296526 0.87348634
0.55044371 1.9491471 0.87493527
0.55015469 1.970253 0.87322295
0.54943997 1.990365 0.87226599
0.55011231 2.0108538 0.87171531
0.54953998 2.0301583 0.87222385
0.55037546 2.049859 0.87301695
0.55051702 2.0694201 0.87420094
0.5500825 2.0902822 0.87149489
0.5498656 2.1104438 0.87109339
0.54979515 2.1308303 0.86939758
0.54998326 2.1503448 0.86998111
0.54929096 2.1697381 0.8700127
0.54852569 2.1900783 0.87098348
0.53788358 2.2108643 0.87047499
0.5438906 2.2083876 0.87004507
0.53957796 2.2312 0.86724198
0.54191041 2.2297542 0.87048626
0.5395 2.25335 0.87298328
0.5415408 2.2492652 0.87038767
0.53937995 2.26934 0.86554396
0.54135913 2.2705042 0.87005615
0.53958994 2.2874 0.86970162
0.54149193 2.2897954 0.87039095
0.53900689 2.3099 0.86904305
0.54132414 2.3083942 0.86872882
0.53878063 2.3281314 0.86990815
0.54081935 2.3306801 0.87186539
0.53928745 2.3484626 0.87067127
0.54083782 2.350311 0.86971784
0.53891885 2.3692443 0.86489224
0.54100555 2.369128 0.87279725
0.53862476 2.3934422 0.87048417
0.54088098 2.3877301 0.87098104
0.53884298 2.4105928 0.8697933
0.54059333 2.4103668 0.87235832
0.53830719 2.4309204 0.86947954
0.5406478 2.4303331 0.87220782
0.5386045 2.4508276 0.8703621
0.54056001 2.4451001 0.8729167
0.53795993 2.4707289 0.87107301
0.54074001 2.4649334 0.87231666
0.53803998 2.490093 0.8699165
0.54234505 2.4927499 0.87427497
0.53774828 2.5098748 0.86815041
0.54021001 2.5106001 0.87804002
0.53786486 2.5295005 0.86896574
0.54026002 2.5253999 0.86596
0.53748572 2.5495 0.86993009
0.53731698 2.569067 0.86937326
0.53658396 2.5883963 0.86953211
0.54062003 2.5996001 0.86462998
0.53678328 2.6096535 0.8703571
0.53694528 2.6292784 0.8703208
0.53746992 2.6499033 0.86874932
0.53710967 2.6699357 0.8704145
0.54052001 2.6723001 0.87162
0.53643423 2.6907904 0.87080693
0.53145295 2.7126203 0.86867732
0.53592306 2.7300434 0.86924857
0.53633505 2.7499998 0.87064952
0.54031998 2.7593999 0.87048
0.53641921 2.7713721 0.8705188
0.54008001 2.7632999 0.87050003
0.53583884 2.7899776 0.87028611
0.53498197 2.8100133 0.8699463
0.53438413 2.8297794 0.86889428
0.53460199 2.8488722 0.86932921
0.53414106 2.8698888 0.87030804
0.53461182 2.889632 0.86971325
0.534145 2.9084227 0.86849362
0.53314364 2.9308181 0.87048537
0.53347415 2.9498084 0.87007499
0.53318071 2.9704518 0.86993241
0.53235167 2.9900331 0.8707149
0.53149807 3.0110669 0.87177891
0.53174776 3.0305436 0.87051308
0.53121698 3.0485966 0.87056011
0.53086412 3.0704362 0.87039858
0.53156 3.0901651 0.87009615
0.53090811 3.110327 0.86954081
0.53062999 3.1221499 0.86382496
0.54464215 1.1900749 0.89004606
0.54422069 1.2101429 0.88947576
0.54455197 1.2300569 0.89014471
0.54421777 1.2495962 0.89021039
0.54544932 1.2706139 0.88909274
0.54499358 1.2891033 0.88914543
0.54532206 1.3096143 0.89030975
0.54542303 1.3301967 0.89096266
0.54579854 1.3507056 0.89088506
0.54558343 1.3704499 0.88787347
0.54589546 1.3907224 0.88975805
0.54671192 1.4108061 0.89095157
0.54613268 1.4302586 0.89097035
0.54684353 1.4489963 0.89093214
0.54702318 1.4692467 0.88950932
0.54718065 1.4891001 0.88918573
0.54694748 1.5090139 0.8903265
0.5475266 1.5295939 0.8917051
0.54778463 1.5507264 0.8902716
0.54772091 1.5703325 0.88992643
0.54765719 1.5892626 0.89015996
0.53793746 1.6057999 0.89402002
0.5470624 1.6102095 0.89019233
0.55031997 1.6297847 0.89037365
0.55109793 1.6499783 0.88897151
0.55150211 1.6704646 0.88973606
0.55082881 1.6891612 0.88905936
0.5508979 1.7084894 0.88633788
0.55193138 1.7288001 0.88580364
0.55161059 1.7504314 0.88530058
0.55059785 1.7687643 0.88427782
0.55177265 1.7894069 0.88443667
0.55093271 1.8112202 0.88454998
0.55174625 1.828446 0.88573456
0.55167222 1.8478222 0.8851822
0.55072606 1.8699334 0.88479674
0.55078769 1.8905231 0.88345391
0.55124497 1.9103286 0.88475853
0.5510087 1.9297876 0.88397318
0.55085194 1.9493301 0.88505805
0.55093199 1.9699467 0.88365936
0.56674331 1.9725666 0.89675665
0.55070204 1.9906797 0.88482362
0.56722999 1.98 0.89727002
0.55063599 2.0102336 0.88490331
0.57046998 2.0064001 0.89990002
0.55059129 2.0308373 0.8862344
0.55038309 2.05 0.88622153
0.55073899 2.0704045 0.88606042
0.55076265 2.0904369 0.88695514
0.55007845 2.1089101 0.88697499
0.54993552 2.1296434 0.88993436
0.5498777 2.1492031 0.89021993
0.54884201 2.1697173 0.88979733
0.54950833 2.1897037 0.88936919
0.53760821 2.2097909 0.88886184
0.54406065 2.2104123 0.8905338
0.53842497 2.2356 0.89250505
0.54169762 2.2296703 0.88949198
0.53909802 2.25122 0.88901395
0.54160964 2.2503965 0.89067537
0.53898835 2.2686999 0.88264829
0.54153687 2.2697909 0.89124686
0.53959668 2.2908833 0.8883667
0.54156083 2.2887957 0.89077866
0.53899145 2.3114142 0.89465857
0.54160953 2.3105741 0.88885963
0.53860766 2.3316569 0.8899253
0.54071748 2.3283 0.89100593
0.53907251 2.3496051 0.88925046
0.54132694 2.3524461 0.88955146
0.53905225 2.3713388 0.88740057
0.54140133 2.3693335 0.88923395
0.53902704 2.3898411 0.8919965
0.54085916 2.3903582 0.88805836
0.53893626 2.4104419 0.89097244
0.54060334 2.4077332 0.8875584
0.53862 2.430794 0.88984132
0.54076713 2.4288287 0.89226574
0.53846592 2.4496498 0.88940316
0.54056424 2.4505713 0.89000714
0.53834993 2.4706793 0.89096308
0.54024601 2.46732 0.89230204
0.53812003 2.4896777 0.88993561
0.54027748 2.491425 0.88959253
0.53781801 2.5103698 0.88941008
0.54025 2.5197999 0.89135998
0.53856337 2.5272613 0.88957381
0.54201001 2.53 0.88965505
0.53728336 2.5489666 0.89466339
0.54009002 2.5546999 0.89876002
0.53696871 2.5684502 0.89584625
0.54038 2.5794001 0.89772999
0.56612998 2.570775 0.89790249
0.53850335 2.5929668 0.89799833
0.56467503 2.5935833 0.89801496
0.53667855 2.6109569 0.8976528
0.54997003 2.6069498 0.88670003
0.5661267 2.6115 0.89943671
0.53751999 2.6324573 0.89584571
0.56551999 2.6264999 0.89968997
0.53681123 2.6492999 0.89217246
0.543185 2.6464 0.89761502
0.56585997 2.6484334 0.89786005
0.53643095 2.67381 0.89165199
0.54048997 2.6796999 0.89305001
0.53631198 2.6909478 0.89030546
0.54131001 2.6803 0.88931
0.53084964 2.7136776 0.88946813
0.53669882 2.7305355 0.88892245
0.53596175 2.7506967 0.88943124
0.5358808 2.7709002 0.89027441
0.53551406 2.789422 0.88987625
0.5357815 2.8085697 0.89038074
0.53641587 2.8294001 0.88943881
0.53509384 2.8493652 0.88981187
0.53477919 2.8694119 0.88969803
0.53504401 2.8903286 0.88951319
0.53409922 2.910146 0.89001459
0.53452402 2.9296999 0.89064187
0.53356963 2.9505446 0.89045954
0.53289521 2.9708142 0.89028251
0.53273958 2.9897819 0.89009261
0.53199196 3.0093906 0.89002675
0.53131223 3.0298777 0.89039832
0.53184628 3.0496881 0.89017248
0.53108221 3.0709333 0.88985395
0.53049201 3.0905564 0.88966393
0.52977198 3.1076803 0.88899201
0.54432672 1.1705073 0.90983289
0.5441919 1.1898704 0.90984511
0.54456186 1.2092437 0.9098416
0.54447854 1.229823 0.91129303
0.54468006 1.2513849 0.91033119
0.5449965 1.2703675 0.90921801
0.54490447 1.290342 0.91019076
0.54451597 1.3105067 0.90982169
0.54621273 1.3297939 0.91027546
0.54529989 1.3493998 0.90974742
0.54630333 1.3696401 0.90967143
0.54661906 1.3896419 0.91009849
0.54655927 1.409603 0.91037291
0.54611397 1.4296788 0.91149694
0.54701459 1.4498138 0.91018784
0.54648381 1.4693055 0.90925431
0.54724371 1.4903966 0.90904546
0.54691464 1.5103205 0.91072804
0.54697758 1.5301937 0.91112548
0.54731297 1.550106 0.9093886
0.54780644 1.5702918 0.91015476
0.5483259 1.5905137 0.90993738
0.53868002 1.6067333 0.90845662
0.548087 1.6104168 0.9099704
0.55165124 1.6299717 0.91121119
0.55154324 1.6501501 0.91067165
0.55132854 1.6701148 0.90963554
0.5512467 1.6854619 0.90983617
0.57265496 1.69785 0.91584504
0.54967999 1.7193 0.91997999
0.57678336 1.7030667 0.91368002
0.58286798 1.71187 0.91451007
0.55175006 1.7287401 0.91886598
0.57844001 1.7342 0.90591002
0.58645648 1.7290752 0.91441107
0.5510183 1.7497834 0.91835004
0.58586842 1.7498361 0.91371512
0.55029005 1.7701713 0.91808712
0.58791637 1.7684212 0.91517639
0.55167139 1.7909143 0.91833574
0.58788139 1.7888999 0.913607
0.55098671 1.8084668 0.91847777
0.58947182 1.8096823 0.91540647
0.55283403 1.8326401 0.91749799
0.58927715 1.8286047 0.9145301
0.55164337 1.8495001 0.91756004
0.58969504 1.8497666 0.91457611
0.55126876 1.8707875 0.91818243
0.59093237 1.8688589 0.91547173
0.55185181 1.890918 0.91774553
0.59178156 1.8904682 0.91537213
0.55132455 1.9095638 0.91782629
0.58995736 1.9103317 0.91425043
0.55079836 1.9266167 0.91803002
0.58919358 1.9296952 0.91421086
0.55189496 1.9532334 0.91752338
0.59020948 1.9510278 0.91477895
0.55174857 1.9722143 0.91846424
0.58909416 1.9703999 0.91393512
0.55161124 1.9896375 0.91876006
0.58950001 1.9896502 0.91486067
0.55048674 2.0102668 0.91899329
0.57348996 2.0135334 0.90166998
0.58857286 2.0092216 0.91498852
0.54998195 2.0267799 0.91937196
0.57678998 2.0206001 0.90358001
0.58756059 2.0306237 0.91520292
0.54870999 2.0464501 0.91949999
0.58595163 2.0497885 0.91366553
0.58655477 2.0689619 0.91541761
0.58461553 2.0891998 0.91445243
0.57587999 2.1133626 0.91662872
0.58194166 2.1040666 0.91576338
0.55037439 2.1328957 0.91218394
0.56066 2.1227 0.91597003
0.54976594 2.1500969 0.91040647
0.54989445 2.1698647 0.90975785
0.54944122 2.1898844 0.90852284
0.53854418 2.2111249 0.91109586
0.54306263 2.2119401 0.91118199
0.53948998 2.2304626 0.90668374
0.54164916 2.229779 0.91161543
0.53979504 2.2505999 0.912485
0.54169554 2.2502465 0.91045904
0.53891003 2.2702999 0.908665
0.54133159 2.2712562 0.9096756
0.53971666 2.2902834 0.91225332
0.54150325 2.2894962 0.9101662
0.53918082 2.3086998 0.90925503
0.5411852 2.309974 0.91058725
0.53918374 2.3319376 0.91041249
0.5412122 2.3294523 0.90969914
0.53917074 2.349057 0.91267711
0.54108709 2.3501379 0.90831518
0.53880179 2.3690822 0.91075861
0.5411821 2.3708265 0.90887409
0.53920537 2.3877001 0.91100723
0.54071754 2.3914251 0.91000563
0.5388363 2.4100473 0.91053891
0.54083335 2.4089999 0.90885437
0.53905118 2.4305472 0.90978241
0.54084557 2.429811 0.90802109
0.53847641 2.449496 0.91041183
0.54134661 2.4492333 0.91039664
0.53859437 2.4696119 0.91004509
0.54052001 2.47226 0.90748405
0.53779167 2.4899335 0.91072738
0.53722453 2.5089309 0.90994579
0.54084998 2.5132999 0.91255999
0.53744501 2.5300715 0.91029316
0.54595006 2.53315 0.90090501
0.56523335 2.5333223 0.90235561
0.53714502 2.5505884 0.90934658
0.54009002 2.5467999 0.90281999
0.56474692 2.5503769 0.90257776
0.53762299 2.5702531 0.91033989
0.56430829 2.5710583 0.90241337
0.53656858 2.5905182 0.90945774
0.55884504 2.58215 0.90314496
0.56340396 2.5902102 0.90290797
0.53644538 2.6100602 0.90976334
0.56474334 2.6107502 0.90357667
0.53667867 2.6301448 0.91035837
0.56488693 2.6309233 0.90224075
0.53643805 2.6503935 0.91169286
0.54911327 2.6555667 0.90231997
0.56623125 2.6489625 0.90295744
0.53619713 2.6695786 0.91156906
0.545825 2.66115 0.90356004
0.56362998 2.6603 0.90412003
0.53747666 2.6891627 0.91041112
0.53053957 2.713088 0.9082284
0.53663391 2.7290614 0.90909195
0.53589708 2.7492251 0.91066098
0.53552604 2.7705672 0.91007012
0.5358237 2.7888298 0.9108476
0.53564692 2.810127 0.91025311
0.53590584 2.8293581 0.91037416
0.53450751 2.8498313 0.91018414
0.53450227 2.8699334 0.90933704
0.53457612 2.8902037 0.91010046
0.53350478 2.9103255 0.91043627
0.53289455 2.930712 0.91013658
0.53350776 2.9496086 0.91042233
0.53326005 2.9696002 0.90912694
0.53236777 2.9903185 0.90945894
0.53203994 3.0099075 0.90970957
0.53185266 3.0313077 0.91130471
0.53083044 3.0501459 0.91043955
0.53031719 3.0710108 0.91016006
0.53005582 3.090621 0.90999806
0.53041887 3.1033556 0.90771335
0.54378867 1.1493093 0.9302178
0.54382461 1.1704631 0.92952758
0.54437393 1.1914065 0.93069893
0.54358 1.2100071 0.92981327
0.54434788 1.2304605 0.9301737
0.54410332 1.2490062 0.92951703
0.54497063 1.2704233 0.93043876
0.54535532 1.2898593 0.92975628
0.54455167 1.3098201 0.93037403
0.54529583 1.3290102 0.92980021
0.54579359 1.3485065 0.92918932
0.5458374 1.3703882 0.92891359
0.5462212 1.3902332 0.93061793
0.54669333 1.4095331 0.93015403
0.54607826 1.4299828 0.92970103
0.54733694 1.4503156 0.93025374
0.54673475 1.470789 0.92990029
0.5473029 1.4902707 0.92994523
0.54664403 1.5099773 0.93145859
0.54708421 1.5295274 0.93086451
0.54722947 1.5502341 0.92992151
0.5481897 1.570397 0.92978311
0.5478493 1.5901469 0.93024534
0.53757131 1.6060125 0.92982
0.54728758 1.610272 0.92942721
0.55061573 1.6300285 0.92912281
0.55101293 1.6501344 0.92977405
0.55109 1.6697698 0.93076658
0.55171233 1.6883029 0.93089694
0.56602001 1.6962876 0.925605
0.55113339 1.7103666 0.93007386
0.575122 1.70454 0.92604601
0.58395249 1.7125334 0.92439085
0.55058998 1.7302243 0.93010592
0.57740003 1.7248 0.92932999
0.5864495 1.7290854 0.92551565
0.54993337 1.7503635 0.93016928
0.5862568 1.7483772 0.92652279
0.54993665 1.769218 0.92964333
0.58750755 1.7719418 0.92573744
0.55028772 1.789987 0.93025655
0.5883444 1.7908432 0.92493391
0.55002844 1.8104656 0.92923337
0.58945805 1.8110095 0.92575753
0.55060679 1.8300807 0.92954379
0.58861929 1.8310001 0.92679971
0.5503763 1.849683 0.92945689
0.58986229 1.8500862 0.92610455
0.54983592 1.8701298 0.93001699
0.56795001 1.8657 0.92198002
0.59036869 1.8697375 0.92590451
0.55014759 1.8899564 0.929901
0.5900476 1.8896792 0.92606801
0.55041331 1.9090911 0.93103153
0.59035999 1.9104097 0.92670667
0.54978901 1.9301 0.92899501
0.56462997 1.9277 0.92271
0.5907504 1.9299911 0.92666566
0.55094212 1.9507551 0.92886049
0.58982313 1.9513 0.92561507
0.55058354 1.97 0.92990768
0.58884966 1.9710233 0.92620224
0.55029583 1.990344 0.93016875
0.58866799 1.9900068 0.92707998
0.55028486 2.0100272 0.93158245
0.57747996 2.0043001 0.92762995
0.5889073 2.0096183 0.92655855
0.55012614 2.0295 0.93041068
0.58805454 2.028837 0.92716992
0.55005527 2.0504498 0.92896789
0.56568998 2.0522001 0.92372
0.5864321 2.0487881 0.9273243
0.55043256 2.071137 0.92976576
0.5658133 2.0759666 0.92467338
0.58642519 2.069416 0.92723083
0.55052912 2.0906923 0.93015367
0.5858314 2.08865 0.92811275
0.55185807 2.1092329 0.93311477
0.57484859 2.1115785 0.92860144
0.58367223 2.1034 0.92666328
0.55030555 2.1302326 0.93130076
0.57178998 2.1201 0.92725003
0.55051035 2.1497812 0.93022162
0.5503391 2.1706359 0.92985868
0.54955208 2.1904118 0.92909741
0.5381884 2.2111769 0.92938161
0.54287142 2.2122226 0.93173313
0.53955001 2.2228999 0.92581999
0.54188627 2.2313075 0.93081021
0.53982002 2.2514999 0.92293
0.54201263 2.2504067 0.92999834
0.53965002 2.2691667 0.93453664
0.54145855 2.2698464 0.92897004
0.53978503 2.2869 0.93355256
0.54146731 2.2907195 0.92962962
0.53935605 2.30988 0.93068397
0.54151744 2.3105569 0.93045002
0.53921062 2.3325624 0.9331888
0.54164773 2.329591 0.92840135
0.53892899 2.35004 0.93114007
0.54102367 2.3501773 0.92917043
0.53861934 2.3716571 0.928155
0.54153717 2.3695073 0.92965144
0.53878504 2.3903928 0.92939144
0.54105067 2.3905599 0.93066394
0.53834629 2.4095914 0.93004221
0.54067194 2.40995 0.92471391
0.53878778 2.4299047 0.92941231
0.54031819 2.4291544 0.92943633
0.53835839 2.4494224 0.92931294
0.54110801 2.45258 0.92940205
0.53819799 2.4699919 0.93007761
0.5405122 2.468689 0.93188
0.53837717 2.4902439 0.92935562
0.54028004 2.4866667 0.93474334
0.53791624 2.5102224 0.93087417
0.54075664 2.5093002 0.92892003
0.53766298 2.5301087 0.92883253
0.54017001 2.52895 0.93245
0.5375371 2.5504971 0.92905474
0.53733629 2.5699801 0.92963153
0.53654426 2.5895412 0.92863095
0.53662467 2.6103563 0.93073964
0.53697854 2.6305645 0.9298954
0.53711587 2.6501148 0.93125218
0.53656805 2.6705961 0.93019575
0.53668642 2.6893914 0.93018395
0.52948916 2.7140377 0.92901963
0.53598142 2.7296498 0.93011034
0.53547686 2.7504036 0.93125021
0.53599477 2.7692327 0.92974079
0.53556961 2.7899632 0.93031961
0.53450269 2.8102527 0.92964441
0.53464562 2.8291101 0.92864931
0.53501844 2.8495033 0.93093556
0.53362745 2.8704677 0.93009859
0.53378481 2.8896198 0.93124551
0.53333998 2.9106312 0.93114543
0.53303838 2.9308596 0.93017763
0.53242606 2.9504893 0.92948711
0.53281033 2.969578 0.92964327
0.53238463 2.99017 0.93051368
0.53118038 3.0103216 0.93040091
0.53060782 3.0300694 0.92977393
0.53067482 3.0500438 0.93065029
0.53053236 3.0686145 0.93158668
0.53003782 3.0907433 0.92821562
0.54348195 1.1092066 0.95052123
0.5433771 1.1308222 0.95007998
0.54329294 1.1499922 0.95067585
0.5437724 1.169794 0.94838852
0.54449499 1.1907846 0.95126766
0.54459512 1.2106184 0.95014042
0.54445571 1.2299668 0.94873255
0.53974998 1.2534 0.94261998
0.54467291 1.249929 0.94917488
0.54514277 1.269869 0.9488256
0.54529387 1.2901967 0.94973028
0.5454995 1.3105528 0.95138568
0.54581124 1.3301781 0.95079505
0.54647875 1.3500131 0.9492687
0.54645836 1.3701564 0.95034003
0.54624516 1.3901139 0.94967246
0.54625779 1.4096718 0.95089567
0.54681367 1.4298973 0.95010388
0.54685277 1.4507688 0.9495365
0.5470773 1.4704846 0.94975615
0.54734552 1.490103 0.95001549
0.54726619 1.5108324 0.9507646
0.5471006 1.5297877 0.94932365
0.54715902 1.5498648 0.94958597
0.54746366 1.5696913 0.95021111
0.5477739 1.5891861 0.95085186
0.53024906 1.6070362 0.95083272
0.5466029 1.6087186 0.94912517
0.52699667 1.6253999 0.95161003
0.55058789 1.6291368 0.94925803
0.53521001 1.6489999 0.9565925
0.54962897 1.6502526 0.95160133
0.51732248 1.664125 0.94802248
0.52998 1.6789 0.95227504
0.55046964 1.6694896 0.949139
0.52963501 1.6815 0.95271003
0.54955834 1.6898344 0.9503454
0.53457999 1.7005 0.95515501
0.55019426 1.7100972 0.94907379
0.53010005 1.7341666 0.95241666
0.55000746 1.7307889 0.94984686
0.53405666 1.7479 0.95472336
0.55027217 1.7505816 0.95044374
0.53762496 1.774 0.95730996
0.55023235 1.770193 0.94791609
0.53639996 1.7836499 0.95511997
0.55076689 1.7904301 0.94921011
0.53477001 1.80305 0.95309997
0.55062717 1.8111744 0.94957477
0.55054176 1.8297759 0.94869524
0.53608 1.8558 0.95769
0.54971373 1.8501158 0.95002478
0.53613496 1.87135 0.95630002
0.55054063 1.8697031 0.95118517
0.53851002 1.8976001 0.95414001
0.55047148 1.8899806 0.95095336
0.5497089 1.9111167 0.95133907
0.55027407 1.9297936 0.94998372
0.53850496 1.9435 0.95692003
0.54943204 1.9494659 0.95019168
0.54936129 1.9693929 0.9517532
0.54956657 1.9898027 0.95065165
0.55002135 2.0095286 0.95038551
0.53839004 2.0256 0.95692003
0.5494023 2.0303795 0.95066971
0.54981899 2.0494781 0.95101118
0.53764999 2.0723 0.95635003
0.54980624 2.0702565 0.94946527
0.53970003 2.096 0.95818496
0.54974413 2.0898526 0.95025325
0.54973167 2.1094601 0.95115203
0.53913337 2.1328666 0.95932001
0.54911941 2.1306329 0.9508397
0.52974004 2.1573 0.95725995
0.5491873 2.1500785 0.94966763
0.53736001 2.1661 0.95975
0.54902071 2.1704574 0.95051146
0.52289999 2.1921999 0.95411998
0.54877084 2.1897767 0.95146853
0.53350574 2.2092669 0.95064807
0.54332602 2.2106733 0.95122933
0.53449297 2.23158 0.94452
0.54201853 2.22978 0.95016253
0.53603524 2.252106 0.94575119
0.54197747 2.2488689 0.94911617
0.53407502 2.2716572 0.94421357
0.54239756 2.26934 0.95090199
0.53727996 2.2902284 0.94417572
0.54191267 2.2908199 0.95426458
0.53519124 2.3091059 0.94458997
0.54215503 2.3105564 0.95332944
0.53469402 2.3301101 0.94457692
0.54175061 2.3286824 0.95261943
0.5362227 2.3478565 0.94617999
0.54104584 2.3509998 0.95633239
0.53675085 2.369509 0.94793814
0.54163444 2.3693557 0.94913334
0.53651232 2.3911057 0.94706649
0.54122734 2.3878052 0.94843161
0.53748375 2.4094164 0.94682091
0.54082716 2.4121284 0.95663136
0.53625399 2.4300601 0.94534397
0.54122299 2.4298706 0.95245475
0.53581589 2.4503236 0.94798875
0.54084152 2.4497769 0.95204681
0.53752029 2.4696999 0.95015824
0.54060668 2.4701667 0.94946337
0.53782684 2.4905844 0.94986498
0.54035997 2.4841335 0.94161659
0.53639525 2.5128632 0.94737798
0.54065198 2.5093799 0.95416594
0.53550428 2.5297999 0.94822603
0.54029 2.5286 0.94600999
0.53600299 2.550463 0.9494037
0.53518969 2.5686393 0.94872522
0.54017001 2.5697999 0.94749999
0.53530419 2.5886965 0.94964832
0.54034001 2.5895998 0.94489336
0.53471476 2.6101758 0.94733912
0.54053003 2.6064999 0.94073999
0.536102 2.6291878 0.94771326
0.5348078 2.6492372 0.94870418
0.53611547 2.6694918 0.95009619
0.5361352 2.6896722 0.94950467
0.51919496 2.7157001 0.95350504
0.52687103 2.7167633 0.94870055
0.53390849 2.7286489 0.95024854
0.53453696 2.7509701 0.94873559
0.53403038 2.7709701 0.94931114
0.53357685 2.7903519 0.94878387
0.53339154 2.8098936 0.94870871
0.5328697 2.8302324 0.94886816
0.53434205 2.8496211 0.94969004
0.53201288 2.8702831 0.94965583
0.53184682 2.8897209 0.94912469
0.53163642 2.9121058 0.95045459
0.53065962 2.930573 0.94894683
0.51746327 2.9504335 0.94687003
0.53133893 2.9502654 0.94845599
0.53045952 2.9680953 0.94995344
0.52993637 2.9887228 0.94778556
0.529863 3.0098648 0.94947255
0.53029323 3.0288224 0.94946939
0.53022563 3.0491188 0.94778252
0.51944 3.0604 0.95195001
0.52751952 3.0688684 0.94689214
0.52804434 3.0865858 0.9458378
0.54361039 1.069537 0.96962935
0.54290968 1.0901394 0.96969128
0.54389966 1.1103485 0.97054762
0.54360408 1.1302352 0.97139007
0.543374 1.1487035 0.9691608
0.54388392 1.1699727 0.96976137
0.543863 1.1894767 0.97043478
0.54370505 1.2099353 0.97065669
0.54484653 1.2292914 0.97011262
0.54439265 1.2495273 0.96896642
0.54447788 1.2687333 0.9697237
0.54511702 1.2889367 0.96990567
0.54559422 1.3099757 0.97078741
0.54515767 1.330652 0.97084683
0.54555631 1.3494997 0.96798331
0.54614455 1.3698226 0.97057199
0.54613733 1.3894904 0.9710536
0.54619271 1.4106028 0.97054785
0.54604995 1.4299105 0.96965277
0.54649138 1.4491419 0.96975833
0.54705912 1.4702973 0.97013813
0.54712456 1.4899291 0.97075456
0.54721218 1.5100411 0.97027618
0.54758346 1.5305513 0.96953923
0.54675466 1.5495863 0.96947128
0.54693633 1.5687234 0.96947163
0.5478754 1.5895733 0.97064942
0.5355289 1.606011 0.96947449
0.54606837 1.6077528 0.97071117
0.55035174 1.6292375 0.97364694
0.55094182 1.6492044 0.97227377
0.54990625 1.6693113 0.9722842
0.55065358 1.6904213 0.97328198
0.55088842 1.7087615 0.97287273
0.55025113 1.7292218 0.97191471
0.55094433 1.7509532 0.97277945
0.53623003 1.7738 0.96063
0.54992771 1.770268 0.97269917
0.55078095 1.7890189 0.97371519
0.55018944 1.8105276 0.97278666
0.55015004 1.829862 0.97264755
0.54962909 1.84935 0.97317046
0.54958391 1.869624 0.97219038
0.5492717 1.8902962 0.97117525
0.54990476 1.909008 0.97187781
0.54984236 1.9290762 0.97209328
0.54976273 1.9495926 0.97147548
0.54935968 1.9693462 0.97256273
0.55046546 1.9899794 0.97405928
0.55016631 2.0108047 0.97239763
0.5499084 2.0303385 0.97107339
0.53987002 2.0416 0.96017998
0.55105042 2.0503201 0.97212481
0.55055964 2.0703154 0.97233158
0.53943998 2.0959001 0.96004999
0.55038393 2.0888264 0.97260958
0.54990482 2.1106241 0.97157556
0.5501526 2.1319842 0.97165793
0.53975999 2.1443999 0.96003997
0.55001324 2.1500497 0.96991646
0.53836 2.16975 0.96034998
0.54950732 2.1693075 0.97086042
0.55108273 2.1886687 0.97506261
0.53847992 2.2107251 0.97029245
0.54307848 2.2126648 0.97220743
0.5423547 2.2297034 0.9700675
0.54228973 2.2495625 0.96969503
0.54237127 2.2701654 0.96990132
0.53952998 2.2985001 0.96573001
0.54238349 2.2901092 0.97000885
0.53935999 2.3185 0.97039002
0.54249287 2.3095825 0.97048837
0.53983003 2.3343999 0.97939998
0.54210341 2.3300345 0.96851391
0.53829998 2.3494999 0.96709001
0.54164344 2.350677 0.9707486
0.53955621 2.3718374 0.97407377
0.54168206 2.369092 0.9688769
0.53920716 2.3857572 0.97233433
0.54165483 2.3917222 0.96936977
0.53918457 2.4123819 0.96889091
0.54121161 2.4075949 0.97179163
0.53931785 2.4300559 0.97034389
0.54065764 2.4303586 0.97193235
0.53885442 2.450439 0.96975112
0.54060274 2.4488273 0.97190899
0.53915954 2.4694526 0.96812099
0.54055858 2.4699998 0.97321713
0.5384835 2.4907653 0.96775854
0.54086804 2.4889398 0.97006702
0.53816968 2.5095925 0.96968645
0.54058003 2.5106001 0.96195996
0.53831041 2.5296962 0.96970302
0.54015332 2.5291667 0.9705534
0.53781658 2.5503311 0.97047371
0.54026997 2.5439 0.96306998
0.53782594 2.5688224 0.97089785
0.54040998 2.5704999 0.96008998
0.53743654 2.5897844 0.97012067
0.54034495 2.5921001 0.96087503
0.53712904 2.6093941 0.96963936
0.53654963 2.6294453 0.96866608
0.54000002 2.6264 0.96201003
0.53671002 2.6497133 0.970864
0.53661346 2.6696157 0.96994627
0.53601789 2.6902709 0.97027242
0.51808751 2.716975 0.96856749
0.5289306 2.7156003 0.97078943
0.53420657 2.7283275 0.97137493
0.535034 2.7495232 0.96919447
0.53465617 2.7715962 0.97029972
0.53482032 2.7912619 0.96949339
0.53406918 2.8101425 0.96972692
0.53357005 2.8299267 0.96996468
0.53259081 2.849885 0.97117257
0.53250921 2.8694875 0.96939504
0.53263193 2.8896031 0.96846545
0.53234804 2.9090161 0.96991652
0.5310604 2.9294724 0.96899599
0.53087473 2.9497523 0.96891624
0.530779 2.9691927 0.97052485
0.5294717 2.9905381 0.97136664
0.53022569 3.0089171 0.97041571
0.52943218 3.0302036 0.97137934
0.52949923 3.0491288 0.97109079
0.52787697 3.0706344 0.96909195
0.528184 3.0831897 0.968849
0.54327971 1.0513444 0.98961788
0.54297286 1.0699872 0.98891032
0.5432207 1.0887501 0.99053651
0.54364336 1.1095425 0.9905163
0.54313123 1.1296942 0.99124753
0.54374981 1.1493688 0.99066675
0.54417443 1.1688097 0.99012917
0.54409826 1.1895278 0.99031413
0.54469419 1.2091208 0.99082655
0.5445137 1.2305968 0.99026525
0.54498887 1.2504749 0.99022698
0.5451178 1.2697481 0.98920554
0.54506743 1.2899513 0.9901678
0.54540795 1.3110236 0.99064088
0.54611069 1.3302203 0.98801804
0.54567933 1.3496697 0.98920661
0.54595768 1.3706352 0.98958445
0.54639143 1.3909311 0.99109101
0.54636002 1.4091333 0.99077874
0.54607254 1.4288594 0.98940635
0.54692805 1.4496835 0.9910304
0.54651207 1.4693 0.99034369
0.54685628 1.4906133 0.99142665
0.54670542 1.510089 0.99125403
0.5467726 1.5301291 0.99045485
0.54688323 1.5501486 0.99011374
0.54755682 1.570047 0.98968309
0.54737258 1.588858 0.99072486
0.53499103 1.6060501 0.989802
0.54684746 1.6095076 0.98887217
0.549977 1.630188 0.990273
0.5506894 1.6494589 0.99093562
0.55072379 1.6708486 0.99081975
0.55095005 1.6883738 0.98928595
0.55102068 1.7108388 0.98748195
0.55049586 1.7301805 0.98892754
0.55039841 1.7499222 0.98990524
0.55018073 1.7710727 0.99061543
0.5501228 1.7900381 0.99122727
0.55048096 1.8090968 0.98824692
0.55039549 1.8304297 0.98873448
0.55041426 1.8486187 0.98995775
0.55053455 1.8701323 0.98965418
0.55019116 1.8898573 0.99102175
0.55000973 1.9098309 0.98856646
0.55055702 1.9292111 0.98601079
0.55025476 1.9503 0.98973507
0.55100209 1.9698596 0.99090976
0.55128402 1.9891881 0.98794401
0.55079573 2.0097332 0.98887879
0.54989666 2.0302305 0.98880601
0.55127478 2.0489881 0.98787081
0.55111611 2.0704734 0.99074519
0.55083627 2.0902855 0.99033195
0.55157638 2.108572 0.98830962
0.55173945 2.1304057 0.98916781
0.55116671 2.1496611 0.98994309
0.55148047 2.1700711 0.9902916
0.55164695 2.1896725 0.99102795
0.53808373 2.2103126 0.98997629
0.54453462 2.2105997 0.9911167
0.54266071 2.2308898 0.98914808
0.54263902 2.2492998 0.9903903
0.54202092 2.2700322 0.9888823
0.53922248 2.2967751 0.99088997
0.54242343 2.2891824 0.99088484
0.54211605 2.3091266 0.99034846
0.53913498 2.33165 0.99017751
0.54138643 2.3297787 0.98920953
0.53906667 2.3479998 0.98841
0.5415464 2.350841 0.99048084
0.53937244 2.370075 0.98668748
0.54166353 2.3709838 0.98918903
0.53970999 2.393075 0.98865002
0.54151809 2.3891962 0.98989731
0.53909725 2.4104667 0.991418
0.54123402 2.4092069 0.99151397
0.53909266 2.4285102 0.98976839
0.541134 2.4318933 0.99246603
0.53906524 2.4495571 0.9898572
0.54096729 2.4495275 0.99204183
0.53919464 2.4695134 0.99099809
0.54063356 2.4698942 0.98704696
0.53885132 2.4906728 0.98854941
0.54046005 2.4886715 0.99018568
0.53852868 2.5104792 0.98994958
0.5409767 2.5027332 0.99311328
0.53822547 2.5297456 0.99024302
0.54048997 2.5276 0.99092001
0.53851074 2.550211 0.98995626
0.54039997 2.5453331 0.98764998
0.53748506 2.5692267 0.98936301
0.54061002 2.5795 0.99712998
0.53716481 2.5894825 0.99025863
0.53755611 2.6107097 0.99015164
0.54009002 2.6010001 0.99561
0.53766644 2.6309288 0.99003744
0.54042 2.6224 0.98650002
0.53688747 2.649507 0.99008334
0.53655142 2.6696758 0.99072349
0.53652501 2.6902468 0.98950726
0.5186528 2.7159142 0.98717147
0.52917069 2.7174132 0.99007869
0.5358969 2.7305307 0.98992038
0.5351249 2.7512195 0.98935717
0.53467548 2.7708895 0.9894821
0.53418607 2.789566 0.9904412
0.53382581 2.8092692 0.98963511
0.533315 2.8302555 0.98709613
0.53296995 2.8499963 0.99057639
0.53232408 2.8704412 0.99084592
0.53229153 2.8889036 0.98881346
0.53116775 2.9092815 0.98966449
0.53119791 2.9304044 0.98910952
0.53018731 2.9470999 0.98973781
0.51391232 2.9742572 0.98983395
0.52637905 2.97088 0.98240393
0.51268435 2.9916825 0.99029034
0.52389246 2.9900749 0.98259002
0.51227999 3.0110681 0.99105185
0.52721286 3.0074 0.98242569
0.51175451 3.030097 0.99057412
0.52425003 3.0288799 0.98134995
0.51029593 3.0506299 0.9913007
0.52439749 3.0519125 0.98232752
0.51350999 3.0661054 0.99260104
0.52571291 3.0714166 0.98859459
0.5284 3.0803001 0.98181999
0.54260862 1.0299484 1.0109861
0.54338807 1.0494701 1.0084901
0.54315794 1.0700972 1.0101085
0.54316211 1.0903965 1.0098689
0.54366434 1.1101249 1.0111144
0.54290658 1.1287862 1.0114069
0.54384226 1.1511769 1.0113728
0.54357225 1.1697228 1.0093684
0.54434466 1.1896313 1.0097126
0.54397959 1.2098444 1.0099629
0.54519141 1.2302864 1.010636
0.54466003 1.2505518 1.0088242
0.54522997 1.2704843 1.0097218
0.54459125 1.2895818 1.0104212
0.5449965 1.3108408 1.0102938
0.54553992 1.3300892 1.0103028
0.54550695 1.3498605 1.008903
0.54617208 1.3698417 1.0097586
0.54667032 1.3903867 1.0100801
0.54601091 1.4105097 1.0104548
0.54634464 1.4300998 1.0081733
0.54692304 1.4493939 1.0091211
0.54654431 1.4699767 1.0096298
0.54671586 1.4899114 1.0104382
0.54641783 1.5098751 1.0095785
0.54751408 1.5308409 1.009997
0.54701221 1.5500962 1.0076221
0.54716063 1.5702896 1.0095482
0.5469411 1.5902287 1.0099629
0.53418696 1.6047599 1.00744
0.54754162 1.6110686 1.0092789
0.55071265 1.62925 1.0097499
0.55016428 1.6497722 1.010775
0.55123317 1.6691368 1.009958
0.556611 1.68542 1.0082699
0.56674451 1.6940851 1.0111501
0.55775285 1.7161571 1.0079571
0.56642485 1.7087481 1.0106311
0.55058122 1.7297918 1.0093473
0.56266999 1.7215 1.0141
0.54996002 1.749843 1.0096629
0.5507943 1.7701201 1.0112344
0.55019116 1.791254 1.0111411
0.55498499 1.8065332 1.0105916
0.56782568 1.8163716 1.0126857
0.55828166 1.8353416 1.0094501
0.56940919 1.8268433 1.012787
0.550798 1.8498281 1.0101948
0.55036908 1.8702363 1.0106243
0.55044675 1.8901893 1.0106815
0.55167437 1.9086436 1.0098126
0.56112999 1.9179751 1.012625
0.55932999 1.9223 1.0027
0.56867176 1.9302059 1.0101635
0.55238581 1.9536415 1.0105582
0.56165999 1.9439 1.0121111
0.5521279 1.9693642 1.0092356
0.56199801 1.9782002 1.0126801
0.55896837 1.9830834 1.011
0.56970042 1.9893522 1.0101957
0.5531413 2.0138044 1.0086545
0.5613867 2.003911 1.0117
0.5525766 2.0289905 1.010675
0.56066 2.0376 1.0175
0.55893999 2.0430715 1.0127143
0.57003236 2.051043 1.0114905
0.55411482 2.0716224 1.0117519
0.56052995 2.063575 1.011475
0.55224466 2.0898414 1.0108675
0.55797458 2.1026907 1.0108546
0.56887692 2.1106908 1.0116565
0.55381 2.1320999 1.0096556
0.56204498 2.12235 1.0113834
0.55062121 2.1487529 1.0091156
0.55143112 2.169683 1.0105057
0.55136812 2.1905377 1.0108273
0.53924328 2.2095168 1.0074667
0.54387581 2.2112458 1.0101918
0.53978002 2.2399001 1.0041
0.54227018 2.2293344 1.0093763
0.54212534 2.2496576 1.0096757
0.54236919 2.2698305 1.0111415
0.53961998 2.2866666 1.0165666
0.54221439 2.2899938 1.0106125
0.53996003 2.3067 1.0148
0.54210275 2.3098786 1.0105393
0.53959829 2.3320501 1.0088834
0.5416196 2.3288186 1.0103742
0.53916121 2.3486497 1.0137501
0.54181284 2.350594 1.0083125
0.53949624 2.369225 1.0094125
0.54128695 2.3702734 1.0092537
0.53902 2.3875251 1.0124249
0.54113346 2.3903692 1.0093884
0.53934139 2.4081001 1.0071143
0.54124457 2.4093542 1.0125792
0.53898454 2.4263361 1.0082546
0.54133207 2.4301894 1.0116736
0.53892076 2.4510233 1.0106616
0.54084474 2.4494402 1.0092666
0.53900886 2.4692335 1.00875
0.54075885 2.4653001 1.0090556
0.538315 2.4892616 1.0087676
0.54066002 2.4894667 1.0065666
0.5380078 2.5094347 1.0092304
0.54047287 2.5119572 1.0106858
0.53815085 2.5305665 1.0095209
0.54045337 2.5280333 1.0106
0.5383693 2.550483 1.0102276
0.54032499 2.55055 1.0039999
0.5377391 2.5705781 1.0102468
0.54094201 2.5657601 1.0088999
0.53709829 2.5895143 1.0093784
0.54033667 2.5934 1.0137334
0.53652805 2.6096816 1.0092788
0.53710562 2.6306312 1.0104759
0.53685868 2.6501093 1.011
0.5366317 2.6706676 1.0104795
0.53639591 2.6903112 1.0095702
0.51739997 2.7168999 1.0109428
0.52830261 2.7156892 1.0093
0.51480001 2.7214999 1.0196
0.53585243 2.7290215 1.008572
0.53395253 2.7505357 1.0093143
0.53526139 2.7684894 1.0102689
0.53420144 2.7900922 1.0105666
0.53716779 2.8036664 1.007689
0.54515207 2.8113837 1.0114198
0.56066 2.8171999 1.0191
0.55399001 2.8235002 1.0148714
0.53325266 2.8510864 1.0123534
0.53273499 2.8691885 1.008827
0.53211552 2.8887484 1.0096334
0.53124803 2.9102693 1.0096155
0.53137708 2.9299624 1.0108498
0.52943081 2.9449847 1.0088462
0.50755203 2.9750199 1.0051401
0.50730777 2.9888723 1.0054001
0.50442386 3.0118773 1.0049384
0.50392801 3.0303202 1.0058299
0.5042755 3.050091 1.0052638
0.51052767 3.0680273 1.0066364
0.52318335 3.0724113 1.0085778
0.54171574 1.0156715 1.0309286
0.54254144 1.029725 1.0303787
0.54284173 1.0501473 1.0295695
0.53992999 1.0651 1.0387
0.54299951 1.0705479 1.0306962
0.54321206 1.090431 1.0298862
0.54330951 1.1102411 1.0302588
0.54384738 1.1307058 1.0309029
0.54374623 1.1508554 1.0323405
0.54394716 1.1702782 1.0290657
0.54436576 1.1896614 1.0301547
0.54484302 1.2097849 1.0294757
0.545241 1.2303572 1.0307572
0.54443586 1.2502832 1.0294918
0.54434675 1.2703087 1.0292529
0.54439497 1.2898515 1.0298887
0.54559577 1.309929 1.0304
0.54543245 1.3296567 1.0310974
0.54511195 1.35015 1.0300332
0.54525149 1.3690089 1.0298762
0.54595751 1.3896192 1.0294582
0.54598087 1.4097542 1.0312886
0.54820353 1.4299881 1.0358117
0.57267088 1.4340183 1.035809
0.54578537 1.4498999 1.0355693
0.57261997 1.4503647 1.0354587
0.54788852 1.4715284 1.0367143
0.57353407 1.4708647 1.0363588
0.549905 1.4883499 1.0358251
0.57270956 1.4905952 1.0365095
0.54636872 1.5105752 1.0364687
0.5722537 1.5112315 1.0362475
0.54656994 1.5295429 1.0378
0.57287836 1.5304666 1.0369917
0.54697764 1.5501764 1.0371883
0.57440788 1.549893 1.0367501
0.54717654 1.5701028 1.029263
0.57344246 1.5632501 1.03695
0.54688692 1.5894423 1.0301
0.53444999 1.605389 1.0318223
0.54742044 1.6100129 1.0308392
0.55066031 1.6310555 1.0296611
0.55034208 1.6503061 1.0304843
0.55050623 1.6698263 1.0305341
0.55193549 1.6891643 1.0324548
0.56441665 1.6937066 1.0252532
0.55204099 1.7110393 1.0339142
0.56629831 1.7073042 1.0268216
0.55072349 1.7292237 1.0276823
0.55027938 1.7488195 1.0294029
0.55080569 1.769591 1.0294274
0.55031002 1.789739 1.030864
0.55194813 1.8089591 1.0309781
0.56360495 1.8143799 1.02562
0.55325586 1.8308212 1.0317394
0.56708866 1.8261317 1.027809
0.55021286 1.8497888 1.0296515
0.55036485 1.8702351 1.0296243
0.55039543 1.890264 1.0308485
0.55124605 1.9108166 1.0300033
0.56184667 1.9174666 1.0230666
0.55169004 1.9289541 1.0355126
0.56721061 1.9302588 1.0273501
0.55169535 1.9512794 1.0305294
0.56142253 1.9429376 1.026075
0.55112767 1.969779 1.0299499
0.56101501 1.97745 1.02205
0.5531584 1.9882561 1.0351801
0.56912142 1.9904311 1.0278137
0.55146164 2.0120583 1.0315971
0.56223333 2.0039749 1.0257083
0.55174404 2.030328 1.0286028
0.55417442 2.0470202 1.032704
0.56681138 2.0500782 1.0286107
0.55248922 2.0702758 1.0305027
0.56092006 2.0623999 1.0246201
0.55210418 2.0909479 1.0305525
0.55447078 2.1085875 1.0341543
0.56729037 2.1118257 1.027229
0.55285656 2.1297307 1.0304335
0.55144578 2.1503766 1.029747
0.5512864 2.1698823 1.0306413
0.55094707 2.1899853 1.0306207
0.53826219 2.2107332 1.0299335
0.54351717 2.2121677 1.0299357
0.53994 2.2263 1.0354
0.5428111 2.2310441 1.0286323
0.54257965 2.2509313 1.0295311
0.54243827 2.2710714 1.0299802
0.54199243 2.2915313 1.0308094
0.53893667 2.3115001 1.0322667
0.54186231 2.3109 1.0307775
0.53983003 2.3211 1.0231
0.54151028 2.3312054 1.0292314
0.53946716 2.3491285 1.0246714
0.54182857 2.3507574 1.0314034
0.53962553 2.3732665 1.0285223
0.54139638 2.3687184 1.0296816
0.53938287 2.3863142 1.0246
0.54164678 2.3884106 1.0302578
0.53963995 2.40255 1.0222499
0.5410009 2.4093456 1.0256819
0.53939861 2.4307001 1.0235001
0.54120505 2.432375 1.0242001
0.53916204 2.45225 1.0250499
0.54455751 2.4437752 1.0267999
0.53850555 2.4691892 1.0222555
0.54124445 2.4697778 1.0262889
0.56353998 2.4784999 1.0391001
0.5383392 2.4910414 1.0236999
0.54059994 2.4885502 1.023375
0.53734374 2.5111876 1.023625
0.54071999 2.5026 1.0225
0.53740436 2.5304856 1.0248215
0.54084998 2.5383 1.0376
0.53776127 2.5498059 1.0297364
0.54014999 2.5467999 1.0219001
0.53742486 2.5705211 1.0310395
0.53710169 2.5901668 1.0299433
0.53733641 2.6101968 1.0300291
0.54041499 2.61765 1.0227001
0.53687322 2.6303759 1.029964
0.53689408 2.6501467 1.0301436
0.54038501 2.6436501 1.02865
0.53618366 2.6704938 1.0306758
0.53681767 2.6890366 1.0310901
0.51587623 2.7177126 1.028425
0.53129125 2.7138374 1.0302124
0.51806003 2.7211001 1.0309
0.53478879 2.7292252 1.028928
0.53497028 2.7500379 1.0292827
0.53469419 2.7700195 1.0301871
0.53504997 2.7915034 1.0299594
0.54045999 2.7997999 1.0216
0.53710663 2.8071065 1.0353067
0.55008346 2.8097942 1.0281544
0.56046999 2.8162999 1.0229
0.53477097 2.8327498 1.0376999
0.54293162 2.8275769 1.0312154
0.53338856 2.8497891 1.0298555
0.532682 2.8702698 1.02993
0.53186381 2.8903272 1.0292732
0.53152108 2.9105961 1.030248
0.53036314 2.9305856 1.030775
0.53260094 2.9488523 1.0322618
0.53342253 2.9707956 1.0313998
0.53428054 2.9904099 1.032565
0.53313684 3.0102839 1.0318947
0.53266573 3.0297003 1.0326333
0.53194612 3.0510442 1.0332222
0.53417999 3.0599999 1.0306
0.54190004 1.0168571 1.0507429
0.5427444 1.0293 1.0500201
0.54301512 1.0496032 1.0502774
0.54269636 1.0705806 1.0505002
0.53985 1.0931499 1.0534
0.54288578 1.0901749 1.0481071
0.54312497 1.1097406 1.0493063
0.54353029 1.1296592 1.0510155
0.54384309 1.1505715 1.0513029
0.54423726 1.1702454 1.0502
0.54434794 1.1902901 1.0496466
0.54474372 1.2105966 1.0499301
0.54501468 1.2303795 1.050656
0.54539937 1.2503529 1.0505735
0.54489619 1.2698529 1.0493677
0.54515815 1.2899313 1.0503531
0.54479027 1.3099606 1.0492817
0.54547441 1.3302824 1.0511295
0.54590833 1.3495674 1.0505269
0.54624271 1.369127 1.0503783
0.54628372 1.3905342 1.0493718
0.54609609 1.4101422 1.0495452
0.54620677 1.4307667 1.0511122
0.54626703 1.4500793 1.0504441
0.57405001 1.4586999 1.0401
0.54606503 1.4702677 1.0492513
0.57431 1.4724332 1.0407
0.54597777 1.4906973 1.0493582
0.57323998 1.4917332 1.0409666
0.54602039 1.5103834 1.0502467
0.57139999 1.5123167 1.0410334
0.54607141 1.5294456 1.0507915
0.5713017 1.5302 1.0413667
0.54627872 1.5494657 1.0503764
0.57384336 1.5539999 1.0405
0.54658765 1.5703063 1.0489423
0.5468871 1.5899514 1.0501515
0.53577602 1.6049502 1.0537201
0.54769546 1.6107125 1.0495082
0.55075037 1.6296842 1.0509313
0.55074149 1.6491616 1.0493822
0.55046409 1.6698471 1.0498734
0.55009943 1.689697 1.0500208
0.55011022 1.7097658 1.051258
0.54985386 1.7301947 1.0502487
0.54996026 1.7496971 1.0495315
0.55006057 1.7697756 1.0502377
0.55046338 1.7890943 1.0500138
0.55017304 1.8093944 1.0506167
0.54967791 1.8302236 1.0500206
0.54996574 1.8502325 1.0494459
0.54974025 1.8692629 1.0497628
0.55056685 1.8900443 1.0504947
0.54993618 1.9104511 1.0500927
0.54977089 1.9303913 1.0513457
0.55062032 1.9505002 1.0495861
0.55079383 1.9704063 1.050625
0.55032653 1.9891263 1.0500118
0.54991752 2.0093999 1.0509325
0.55047727 2.0295999 1.0488181
0.55019832 2.0495408 1.0499897
0.55009443 2.0695486 1.0496359
0.55109149 2.0905743 1.0501744
0.55068827 2.1104801 1.0510515
0.55099899 2.1302333 1.0510284
0.55112225 2.1496048 1.0504249
0.5508756 2.1700335 1.0497972
0.55131996 2.1900456 1.0503256
0.53864002 2.21102 1.0497601
0.54366243 2.2098415 1.0502836
0.53937 2.2304001 1.0513
0.54241145 2.229733 1.0483027
