# .PCD v0.7 - Point Cloud Data file format
VERSION 0.7
FIELDS x y z
SIZE 4 4 4
TYPE F F F
COUNT 1 1 1
WIDTH 1613
HEIGHT 1
VIEWPOINT 0 0 0 1 0 0 0
POINTS 1613
DATA ascii
0.88592499 1.5236 3.1224499
0.9073267 1.5233668 3.1214001
0.93141747 1.523175 3.1224
0.95769668 1.5250334 3.1218331
0.97073001 1.52285 3.1234999
0.9811933 1.5251001 3.1222334
1.0058 1.5228001 3.1229501
1.03065 1.5240501 3.1230001
1.05495 1.5233999 3.1224167
1.078825 1.52205 3.123625
1.1020666 1.524 3.1247666
1.1275333 1.5220667 3.1238668
1.1529 1.5239401 3.12304
1.1738334 1.5263 3.1221168
1.1806 1.52495 3.12205
1.2019666 1.52505 3.1235497
1.24585 1.53215 3.1206
1.26785 1.5329167 3.1233499
1.2889999 1.52842 3.1224601
1.31345 1.52955 3.1227748
1.3367667 1.5203 3.1249332
1.3435 1.53075 3.1215501
1.36158 1.5316401 3.1231999
1.3882999 1.5324167 3.1215498
1.4116 1.5316 3.1245198
1.4359601 1.5319201 3.1236401
1.4585 1.5374 3.1278999
1.4632 1.52985 3.12675
1.488075 1.53745 3.122575
1.5118666 1.5356666 3.1243999
1.5349429 1.5357715 3.1263714
1.5581332 1.5384668 3.1260664
1.5617602 1.53702 3.1266999
1.5854125 1.5309875 3.1229498
1.6101857 1.5346143 3.1244431
1.6330166 1.5350666 3.1254332
1.6576 1.5358285 3.1262572
1.6656713 1.5371999 3.1241715
1.6844666 1.5340445 3.1255221
1.7098786 1.5336643 3.1247213
1.7330428 1.536207 3.1267571
1.756693 1.5341284 3.1246643
1.7703091 1.5336273 3.1227639
1.7860498 1.5342001 3.1250858
1.807655 1.53409 3.1245053
1.8312651 1.5333099 3.1264901
1.8519192 1.5333577 3.124465
1.8726501 1.5338917 3.125592
1.8869679 1.5312682 3.1235456
1.9072357 1.5335035 3.126025
1.930124 1.5325999 3.1262078
1.9515227 1.5311592 3.1258819
1.9718919 1.5310435 3.1235085
1.9897001 1.5301863 3.1227272
2.0083153 1.5318153 3.1244493
2.0296412 1.530545 3.1247003
2.0502896 1.5302929 3.1242018
2.0711017 1.5303197 3.1231284
2.0906074 1.5301983 3.123466
2.1101131 1.5293682 3.1243625
2.1300128 1.529487 3.1256115
2.1500344 1.5289152 3.1254964
2.1608398 1.52766 3.12356
2.2310503 1.5288174 3.1263902
2.2495947 1.5298452 3.1272752
2.2698255 1.5300019 3.126749
2.2910452 1.5294141 3.1275961
2.3093512 1.5290469 3.1291022
2.3297238 1.529515 3.1288743
2.3482878 1.5291334 3.1290748
2.3699718 1.5296441 3.129328
2.3896487 1.5304357 3.1300178
2.4091725 1.5298247 3.1282961
2.4294851 1.5303447 3.1282668
2.4500384 1.5305508 3.1306939
2.4694571 1.5300348 3.1303291
2.4911439 1.5301998 3.1312349
2.5095441 1.530151 3.131326
2.5298095 1.528796 3.1313999
2.5490716 1.5292559 3.1312726
2.568953 1.5301176 3.1320553
2.5897632 1.5294218 3.1324499
2.6111002 1.5292056 3.1331975
2.6304839 1.5294651 3.1331975
2.64922 1.5291282 3.1337714
2.6696465 1.5291177 3.133682
2.6901324 1.5294796 3.134716
2.7096105 1.5291462 3.1351378
2.730247 1.5284156 3.1350508
2.7499423 1.5289921 3.1348341
2.7698398 1.5292109 3.135571
2.7910221 1.52939 3.1349671
2.8107522 1.5285237 3.1355546
2.8268874 1.5293709 3.135442
2.8401999 1.5314 3.138
-0.044821873 1.5483625 3.1254623
-0.032774001 1.5476333 3.1273
-0.0095202997 1.5439501 3.1266501
0.015908001 1.5537 3.12695
0.034188583 1.5490333 3.1268833
0.059523001 1.5569 3.1276
0.0636985 1.549075 3.1277001
0.087012999 1.5493375 3.1273625
0.1138 1.54725 3.1261501
0.13283375 1.5516 3.1272626
0.15195 1.5450499 3.1256499
0.17141999 1.5521334 3.1269169
0.18529333 1.5505667 3.1255999
0.211573 1.5487701 3.1261897
0.23097749 1.549875 3.1259747
0.25367373 1.5458125 3.1260126
0.27212334 1.5515 3.1246998
0.28400999 1.553175 3.1257501
0.31097752 1.5445374 3.1235125
0.33018363 1.552182 3.1238821
0.35477665 1.5562334 3.1245334
0.37001181 1.5529728 3.1248636
0.38623363 1.5500728 3.1245179
0.4099943 1.5509713 3.1234858
0.43141499 1.55137 3.1222599
0.45296371 1.5530126 3.1218877
0.46982074 1.5503857 3.122236
0.48761418 1.5489249 3.1218417
0.50871277 1.548911 3.1220558
0.53241801 1.5490201 3.1220098
0.55621284 1.5483 3.1211572
0.56597716 1.5508572 3.1224287
0.58566183 1.5499545 3.1220818
0.60928172 1.5485417 3.1212749
0.62972099 1.5513401 3.1212001
0.65315199 1.54852 3.1212599
0.67113626 1.5481499 3.1210375
0.68755996 1.5465999 3.1209557
0.71108252 1.5488625 3.121125
0.73432124 1.5474249 3.1224627
0.75895399 1.5471799 3.1227803
0.77604669 1.5520667 3.1201334
0.78572875 1.5497 3.1217749
0.80947995 1.5489666 3.1225667
0.83230501 1.5494001 3.1222501
0.85522997 1.5490501 3.12095
0.86197001 1.5488 3.1214499
0.8838225 1.5452249 3.1221502
0.90766877 1.5473125 3.1215875
0.93115002 1.547075 3.1223249
0.95646429 1.547757 3.1226714
0.96687496 1.54375 3.12075
0.98250574 1.5478001 3.1224
1.00475 1.54435 3.1236
1.0322572 1.5461285 3.1232855
1.0551111 1.5470111 3.1228554
1.0789751 1.5472 3.1229749
1.0844001 1.5442333 3.1220665
1.1041501 1.5478001 3.1235332
1.1286286 1.5462143 3.1239145
1.1532625 1.5453124 3.1237502
1.1772101 1.5475299 3.1232297
1.1913 1.5481428 3.1226857
1.2026 1.5469888 3.1235666
1.2463 1.5455499 3.1230497
1.2667546 1.5469273 3.1236365
1.2867666 1.5436834 3.1248999
1.3127249 1.5437874 3.1247373
1.3359125 1.5427749 3.1237876
1.3494599 1.54302 3.1245399
1.3634334 1.5435333 3.1253166
1.3870624 1.5459875 3.1220751
1.4114201 1.54162 3.1241403
1.4332445 1.5462778 3.1222775
1.45655 1.5428333 3.1245997
1.4612501 1.5420001 3.1300998
1.4844571 1.5432856 3.1251855
1.5090166 1.5436167 3.1238
1.5346 1.5458572 3.1233428
1.5585001 1.5429 3.1264248
1.5856699 1.54554 3.1251798
1.6104001 1.5461143 3.1238141
1.6325165 1.5458332 3.1246002
1.655975 1.541975 3.1256001
1.66335 1.5462999 3.1213002
1.6845499 1.5460167 3.1243832
1.7106901 1.54553 3.12359
1.7325857 1.549 3.1230714
1.7520224 1.5456333 3.1236999
1.7698112 1.5488666 3.1222115
1.7858334 1.5483667 3.1230333
1.8106874 1.5516875 3.1243627
1.8316584 1.5470834 3.1227834
1.8511959 1.5499629 3.1230211
1.8686602 1.5518401 3.1218698
1.8876362 1.5486271 3.122236
1.9095249 1.5512458 3.122442
1.9325231 1.5511616 3.1227381
1.9522812 1.5512 3.122416
1.971012 1.5507039 3.1216717
1.9897151 1.5508206 3.1219208
2.0086157 1.5511235 3.1234121
2.0304959 1.5519937 3.1239507
2.0504978 1.5497763 3.1238253
2.0702417 1.5500635 3.1225886
2.0903838 1.5507641 3.1232045
2.1103873 1.5509963 3.1245761
2.1292982 1.5504639 3.1241643
2.1493535 1.5498698 3.1247554
2.1610398 1.55252 3.12396
2.2310126 1.549652 3.1269169
2.249495 1.550166 3.1276071
2.2697413 1.5506411 3.1273711
2.2889447 1.5507982 3.1285443
2.3111892 1.5496871 3.1281936
2.3296394 1.5489473 3.1287587
2.3488705 1.549289 3.1298761
2.3691173 1.5500642 3.1292477
2.3910136 1.5506804 3.1305964
2.4106231 1.5503364 3.1274724
2.4299359 1.5506777 3.1285644
2.4485607 1.5512661 3.1305323
2.4696825 1.5508647 3.1304667
2.4908302 1.5504384 3.1319914
2.5094979 1.5499719 3.1312146
2.5292249 1.5508708 3.1318204
2.5488932 1.5511975 3.1322501
2.5693002 1.5495979 3.1318884
2.5905488 1.5501763 3.1329355
2.6103764 1.5508066 3.1333282
2.6297438 1.5512447 3.1331105
2.6491222 1.5508856 3.1336894
2.6693654 1.5498979 3.13447
2.6904354 1.5502846 3.1344922
2.7099104 1.5500585 3.1352561
2.7306268 1.5504107 3.1348433
2.7499714 1.5497978 3.1348834
2.7704911 1.5494134 3.1354289
2.7904596 1.5500262 3.1355417
2.810236 1.5498754 3.135123
2.82723 1.5512027 3.135381
-0.044969335 1.5672332 3.1257668
-0.037516002 1.5699 3.1287
-0.0086498503 1.5731 3.1269
0.0036426669 1.5749 3.1286666
0.029987501 1.5739166 3.1268167
0.048075497 1.570775 3.128875
0.068588004 1.5685199 3.1280799
0.090745747 1.569 3.1285501
0.10958499 1.5708166 3.12745
0.13071251 1.56925 3.1280124
0.15455 1.5684249 3.1273501
0.16870223 1.5710998 3.1274443
0.18691 1.566625 3.1269002
0.20941 1.56818 3.1244798
0.23104779 1.5719223 3.1255109
0.25023144 1.5680428 3.1249859
0.27072665 1.5734667 3.1253333
0.28669998 1.5691856 3.1264145
0.30551124 1.5689876 3.1235502
0.33343554 1.5714222 3.1238999
0.35037199 1.56686 3.12304
0.36931801 1.56856 3.12413
0.38818082 1.5673833 3.1247833
0.40787068 1.5693933 3.1236601
0.43341455 1.5697545 3.1231458
0.45336062 1.5695999 3.1222601
0.47156 1.5672699 3.1223199
0.48620224 1.5709889 3.1221445
0.50804818 1.5699501 3.1225498
0.53281999 1.5702769 3.1216693
0.5521825 1.5702813 3.1223812
0.56924337 1.5693583 3.1224499
0.58492875 1.5710499 3.12305
0.60839003 1.5702583 3.1207502
0.63147998 1.5706799 3.1212399
0.65277541 1.5699769 3.1215539
0.66883421 1.568 3.1214001
0.68679333 1.5716667 3.1218004
0.70923752 1.5719916 3.1212332
0.7298069 1.5703688 3.1215122
0.75418258 1.5716375 3.1216373
0.76332331 1.5673 3.1211002
0.78787202 1.56971 3.1220202
0.8122856 1.5705333 3.1225114
0.83129996 1.5721 3.1217799
0.85526198 1.5720199 3.1216199
0.86205667 1.5685667 3.1217
0.88618565 1.5717857 3.1214287
0.90774804 1.5729001 3.12198
0.93368 1.5721833 3.1221831
0.95391339 1.5724444 3.1220446
0.96695334 1.5720667 3.1230667
0.98150861 1.5713142 3.1237571
1.0065333 1.5691668 3.1234999
1.0313858 1.5718715 3.1229427
1.0563999 1.57135 3.1218331
1.0789143 1.5725429 3.1236286
1.0858666 1.5706 3.1206
1.1044999 1.5729166 3.1233332
1.1292416 1.5731667 3.1240749
1.1539124 1.5717374 3.125025
1.1781299 1.5718501 3.1236601
1.1897874 1.5721875 3.1213503
1.2060616 1.5712923 3.1225774
1.2307 1.5701001 3.1248
1.24585 1.5677624 3.1222622
1.2685858 1.5669429 3.1239929
1.2872384 1.5679847 3.1228998
1.3128401 1.5671201 3.1236901
1.3374571 1.5673286 3.1254857
1.3464857 1.5683429 3.1231997
1.3626455 1.5677273 3.125191
1.38832 1.5672901 3.12395
1.4110545 1.566409 3.1242182
1.4357667 1.5655168 3.12605
1.458225 1.5662 3.126575
1.4627777 1.5671445 3.1238778
1.4856571 1.5654 3.1248212
1.5101693 1.5658462 3.1240768
1.5343616 1.5659692 3.1253614
1.5563874 1.5655749 3.1244876
1.5640428 1.5674714 3.1230428
1.5854938 1.5654626 3.1255815
1.6096817 1.5655545 3.1259909
1.6333154 1.5649539 3.1259692
1.6576444 1.5658222 3.1252666
1.6643571 1.5633 3.1253715
1.6839249 1.5672249 3.1247373
1.7106278 1.5671555 3.1251996
1.7319199 1.5657333 3.1261199
1.7543529 1.5653529 3.1258178
1.7712111 1.5664001 3.1246445
1.7838635 1.5652001 3.1265821
1.8075265 1.5671474 3.1253791
1.8304332 1.5666524 3.1259098
1.8521411 1.5689411 3.1263409
1.8746362 1.5657001 3.126991
1.8898721 1.5666001 3.1241324
1.9077567 1.5661435 3.1263392
1.9305319 1.5691825 3.1241238
1.9518061 1.5680485 3.124573
1.971112 1.56975 3.1230357
1.9901562 1.5702623 3.1232717
2.0093579 1.5696044 3.1240602
2.0301154 1.5695045 3.1238804
2.0500944 1.5702456 3.1240821
2.0708332 1.5702704 3.1234915
2.0903635 1.5711557 3.1234095
2.1100588 1.569749 3.1255045
2.1291113 1.5706511 3.1242113
2.1481285 1.5710036 3.1244426
2.16065 1.5718833 3.1250334
2.2303116 1.57107 3.1261206
2.2492743 1.5706079 3.1276333
2.2687998 1.5700252 3.1274865
2.2912183 1.5705529 3.1275179
2.3106091 1.5711911 3.1282823
2.3312852 1.5704352 3.129308
2.3507657 1.5721767 3.1292396
2.3685231 1.5704252 3.1291864
2.3911979 1.5696936 3.1297939
2.410553 1.5708077 3.1283231
2.4298155 1.5694358 3.1287045
2.4476326 1.5697653 3.1311195
2.4694872 1.5700613 3.1313088
2.4912362 1.5710816 3.1324067
2.5109003 1.5701065 3.1324487
2.5292208 1.5703599 3.1325574
2.5490956 1.5707884 3.1322489
2.5695143 1.5695995 3.1327555
2.5916359 1.5701916 3.1327238
2.6117079 1.5706843 3.1334126
2.629118 1.5719131 3.1341786
2.6485651 1.571455 3.1339023
2.6697261 1.5697263 3.1342545
2.6909409 1.57118 3.1350679
2.7103672 1.5706201 3.1350245
2.7287812 1.5706675 3.1349421
2.7496717 1.5713497 3.1353295
2.7705128 1.5699451 3.1354265
2.7910159 1.57023 3.1353817
2.8111234 1.5704546 3.1358614
2.826242 1.5710598 3.1358778
-0.046866111 1.5900557 3.1249557
-0.030978998 1.5933 3.12835
-0.014216499 1.59835 3.1278501
0.013089566 1.5882334 3.1273668
0.029145248 1.5905625 3.1272249
0.048116002 1.584475 3.1292
0.067461565 1.5885857 3.1289144
0.090518199 1.59032 3.12868
0.107125 1.588475 3.1284499
0.13463545 1.5917908 3.1287363
0.15556334 1.5885667 3.1277335
0.16890399 1.5899498 3.1268899
0.181125 1.5987 3.1270499
0.21074499 1.5900375 3.1260877
0.23104699 1.58801 3.1254699
0.24777584 1.5899085 3.1257915
0.26913533 1.5914732 3.1256332
0.288921 1.5874 3.1245902
0.3073225 1.5911125 3.1246002
0.33422446 1.5897335 3.1244555
0.35164601 1.58804 3.1237798
0.36738873 1.588575 3.1245873
0.38640463 1.5885231 3.1231613
0.4096553 1.5897825 3.1232119
0.43159273 1.5929909 3.1234727
0.45236626 1.5884875 3.1223252
0.46806002 1.5879999 3.1225331
0.48951414 1.5891085 3.1221836
0.50923598 1.5919067 3.1222601
0.53160912 1.5918908 3.1220818
0.551085 1.5883 3.1213
0.56772465 1.5901202 3.1223068
0.58660805 1.5906249 3.122375
0.60945934 1.5918866 3.121453
0.63097745 1.5911436 3.1209691
0.65380597 1.5912398 3.12146
0.66707104 1.5890599 3.1210499
0.68900806 1.58957 3.1215999
0.70947331 1.5888 3.1212778
0.73030251 1.5892166 3.1214583
0.75317633 1.5917182 3.1212816
0.76094496 1.5934 3.1229
0.78647602 1.59478 3.1226602
0.80778998 1.592175 3.12255
0.83110249 1.5948 3.1219997
0.85705751 1.59615 3.1227751
0.8707034 1.5897001 3.1210001
0.88402998 1.59408 3.1233201
0.90836334 1.5946666 3.1224334
0.93201327 1.59585 3.1224
0.95682335 1.5965 3.1228666
0.97018331 1.5953001 3.1207666
0.98228002 1.5938333 3.1230001
1.0042334 1.5962666 3.1244333
1.0303667 1.5954833 3.1228168
1.0558714 1.5955286 3.1235714
1.07664 1.5961 3.12414
1.0876666 1.5888333 3.1215999
1.1065334 1.5956 3.1241665
1.1304545 1.5940819 3.1238909
1.1536924 1.5941615 3.1231308
1.1744866 1.5931067 3.1227267
1.1914446 1.5932889 3.123589
1.2083945 1.5913167 3.1218998
1.2442833 1.5904499 3.1229832
1.2682624 1.5914876 3.1240563
1.28846 1.59226 3.1235299
1.3131915 1.5927916 3.1236999
1.3372126 1.5920125 3.1249876
1.34396 1.58822 3.12363
1.3633231 1.5908154 3.124054
1.3884817 1.593491 3.1234362
1.4103812 1.59035 3.1235125
1.4344499 1.5925251 3.1252625
1.4543428 1.5921143 3.1234856
1.465711 1.5924444 3.1239333
1.4862216 1.5907571 3.1248143
1.5114821 1.5906472 3.1246004
1.5341182 1.5914456 3.1267548
1.5543112 1.5896667 3.1241999
1.5654 1.5915251 3.1243501
1.5857763 1.5911705 3.1247942
1.6093143 1.5897357 3.1259644
1.6333078 1.5897 3.127069
1.6554285 1.5906428 3.1261928
1.6661999 1.5903857 3.1233859
1.6875113 1.591069 3.1237073
1.7101955 1.5917319 3.1253777
1.7308792 1.5906947 3.125716
1.7560667 1.5914249 3.1261251
1.7667999 1.5914299 3.1244998
1.7860703 1.5899824 3.1254468
1.8080647 1.5883294 3.1267409
1.8299961 1.5909538 3.1249692
1.851774 1.5893711 3.1247644
1.8684601 1.59093 3.1231153
1.8878429 1.589415 3.1245303
1.9077854 1.5882037 3.1259968
1.9307586 1.5895952 3.1246417
1.9511548 1.589016 3.1243157
1.969822 1.5897366 3.1228976
1.990121 1.5898019 3.1231911
2.008455 1.5889899 3.1248615
2.029319 1.5897036 3.1234224
2.0501807 1.5898676 3.1251011
2.0708499 1.5893611 3.1239035
2.0906899 1.5895492 3.1242368
2.110224 1.5891426 3.1250794
2.1306546 1.5901493 3.1262546
2.1505303 1.58962 3.12676
2.1614499 1.5879833 3.1252668
2.2312577 1.5893342 3.1273055
2.2504551 1.5898741 3.1289327
2.269752 1.5897782 3.1271262
2.2899888 1.5899321 3.1291416
2.3104615 1.5891039 3.1295903
2.3302228 1.5905906 3.1303232
2.3501918 1.5902344 3.1302345
2.369185 1.5899611 3.1295521
2.3902543 1.5900979 3.1308625
2.4102807 1.5908043 3.1284783
2.4302359 1.5891794 3.1286998
2.4490688 1.5897166 3.1312854
2.4706423 1.589651 3.1319799
2.4909661 1.5886413 3.132134
2.5099356 1.5898669 3.1331067
2.5297465 1.5901618 3.1327467
2.54914 1.590315 3.1326249
2.569804 1.5899037 3.1332724
2.5914161 1.5893512 3.1341417
2.6106846 1.5894891 3.1340501
2.6279881 1.5901278 3.1342258
2.6477907 1.5898433 3.1340041
2.6691842 1.5893446 3.1341779
2.6916466 1.5900056 3.1348438
2.710319 1.5902598 3.1351049
2.7291913 1.5899239 3.1351414
2.7484899 1.5909901 3.13502
2.7697809 1.5901978 3.1357014
2.7911589 1.5903277 3.1354642
2.8109369 1.5907468 3.1360793
2.8265595 1.5899445 3.1350479
-0.045479879 1.6082499 3.1249626
-0.031060999 1.6107 3.1289001
-0.0093955332 1.6119666 3.1283166
0.0094119003 1.6109999 3.1259999
0.034194287 1.6106714 3.1278718
0.042768002 1.6102999 3.1300001
0.062151253 1.609275 3.1301751
0.08604034 1.6131999 3.1290333
0.1085775 1.611675 3.1280751
0.13267401 1.608 3.12886
0.15086201 1.61 3.1278198
0.16010001 1.6026499 3.1275501
0.19320333 1.6143999 3.1268666
0.20934166 1.6126666 3.1259167
0.23122072 1.61035 3.1262717
0.25008667 1.6089166 3.1264
0.273186 1.6098201 3.1245999
0.28494748 1.6086874 3.1256373
0.311306 1.6113399 3.12467
0.33544376 1.6119626 3.1238501
0.35168892 1.6082444 3.1247001
0.3695057 1.6112357 3.1256855
0.38970998 1.6094999 3.1234572
0.40817997 1.6068091 3.1239908
0.43205935 1.6087067 3.1229603
0.45287383 1.6095618 3.122946
0.47048187 1.6107124 3.1235378
0.48720387 1.6123538 3.1225772
0.50845915 1.6116363 3.1221001
0.53128785 1.6121643 3.1222215
0.54880637 1.6100456 3.121609
0.5705086 1.6110646 3.1215644
0.58647007 1.6102918 3.1224082
0.60916287 1.6113214 3.1217859
0.62817699 1.6102999 3.1206462
0.64944214 1.6102501 3.1214855
0.66945142 1.6107067 3.1213069
0.68529457 1.6107078 3.1218925
0.70932502 1.6077167 3.1220579
0.73119634 1.6111894 3.1210423
0.75242364 1.6104912 3.1210546
0.76372856 1.6094716 3.1214001
0.78904623 1.6086626 3.1214623
0.81247085 1.610773 3.1211271
0.83273244 1.6095999 3.1202753
0.84870672 1.6128665 3.1205337
0.86235249 1.6078 3.1213
0.88480002 1.6104001 3.1222165
0.91119832 1.6115999 3.1220999
0.92996395 1.6072 3.1215401
0.95017672 1.6077666 3.1206
0.96448201 1.6124198 3.12094
0.98350799 1.61166 3.1220601
1.0071167 1.61295 3.1219833
1.0328667 1.6107335 3.1224222
1.054711 1.6110998 3.1215999
1.0732833 1.614 3.1214335
1.08284 1.6110601 3.12274
1.1091692 1.6101998 3.1220307
1.13146 1.6131099 3.12201
1.1504999 1.6119001 3.1222603
1.1698999 1.6117784 3.1214259
1.189575 1.6102834 3.1210916
1.207064 1.6110882 3.1218843
1.2484 1.6108665 3.1211166
1.2680715 1.6156644 3.1239429
1.289057 1.6145287 3.1235714
1.3104177 1.6121883 3.1230056
1.3341284 1.6170572 3.1236572
1.347775 1.6099834 3.1228752
1.3640443 1.6140333 3.124589
1.3875616 1.6149462 3.1236537
1.4119154 1.6138847 3.1244695
1.4335268 1.6143466 3.1237335
1.45564 1.6144998 3.12462
1.4640124 1.6088625 3.1240997
1.4864125 1.6142126 3.1248624
1.5104572 1.6127714 3.1244216
1.5351638 1.6150454 3.1257272
1.5541 1.6138699 3.12326
1.5664301 1.61492 3.12433
1.5851049 1.6140499 3.1252246
1.6123813 1.6132375 3.1246748
1.6337874 1.6119187 3.1256189
1.6561166 1.6139334 3.1269667
1.6622857 1.6133001 3.1247141
1.6854599 1.6130334 3.1264265
1.711385 1.6115299 3.124495
1.731995 1.612565 3.1257801
1.7567463 1.6144617 3.1267309
1.7683251 1.6091624 3.1223626
1.7855104 1.6118842 3.1272945
1.807565 1.6133549 3.1263204
1.8308625 1.6128458 3.1253626
1.852528 1.6112761 3.1252964
1.8723952 1.6093334 3.1222522
1.8885813 1.6097533 3.1236377
1.9086394 1.6095232 3.1253002
1.9304743 1.6102257 3.1250744
1.9513206 1.6103727 3.125303
1.9709501 1.6098185 3.122793
1.9896811 1.6096606 3.1241853
2.008666 1.6103479 3.1258504
2.0293112 1.6100467 3.1250024
2.0502167 1.6102426 3.1255829
2.070884 1.6100842 3.1238263
2.0898592 1.6102591 3.1250775
2.1093514 1.6097131 3.1254692
2.1300271 1.6097068 3.1273286
2.1505239 1.6095532 3.1266582
2.1617334 1.6090666 3.1239002
2.2312949 1.6096818 3.1288304
2.2494209 1.6088555 3.1279101
2.2696748 1.6095217 3.1277897
2.2911551 1.6093291 3.1285155
2.3095825 1.6085935 3.1294668
2.3298552 1.6100349 3.1307528
2.3486819 1.6085137 3.1301432
2.3696904 1.6087458 3.1298826
2.3907182 1.6102203 3.1308477
2.4096432 1.6098256 3.1288431
2.4288151 1.6096815 3.1286819
2.4496434 1.6093078 3.1308742
2.4699285 1.6091739 3.1319239
2.4906723 1.6087929 3.1320183
2.5107384 1.609373 3.1326303
2.5300024 1.6084477 3.1325076
2.5487249 1.6099105 3.1329441
2.5701268 1.6101868 3.1331868
2.5912952 1.609134 3.1333182
2.6094913 1.6084257 3.1339173
2.6291876 1.6083702 3.1340625
2.6490402 1.6081578 3.1342697
2.6701291 1.6094244 3.13448
2.6914091 1.6085256 3.1351557
2.7113228 1.6082572 3.1354427
2.7298999 1.6087881 3.1361635
2.7492869 1.6094823 3.1356525
2.7709701 1.6096653 3.1356089
2.791455 1.6093723 3.1359274
2.8083839 1.6095892 3.1358676
2.8253641 1.6092399 3.1358042
-0.045919552 1.6279445 3.125011
-0.011968561 1.6260599 3.1283803
0.030892713 1.6315572 3.1278427
0.042715002 1.6366 3.1307001
0.063735202 1.6299 3.1296601
0.090981998 1.63095 3.1291251
0.10985274 1.6292 3.1279726
0.13182832 1.6277167 3.1287
0.14537001 1.6362 3.1281002
0.16644399 1.6281 3.12888
0.19001 1.6291199 3.1269202
0.21232875 1.6273626 3.1266999
0.23281857 1.6268713 3.1264284
0.25091726 1.6315181 3.1260636
0.26737249 1.6289333 3.1263831
0.288605 1.62975 3.1261749
0.31289664 1.6262001 3.1248
0.33131874 1.6344374 3.1246877
0.35166502 1.6343501 3.1236501
0.36374 1.6286399 3.12466
0.39021534 1.6305134 3.1246133
0.40889463 1.6297734 3.1242738
0.4313443 1.6290287 3.1234646
0.45207426 1.6319215 3.1227784
0.46834663 1.6312333 3.1240418
0.48822746 1.635125 3.1226001
0.50934941 1.6299235 3.1231532
0.53417212 1.6315498 3.1228001
0.55608398 1.63281 3.12237
0.56920332 1.6311667 3.1220112
0.58634627 1.631375 3.1223688
0.60925585 1.6299293 3.1221118
0.63003767 1.6315999 3.1213002
0.65348506 1.6292187 3.1225312
0.67060167 1.6320168 3.1213753
0.68689311 1.6304252 3.1219063
0.70891297 1.6283883 3.1217999
0.72947621 1.6309284 3.1214619
0.75173742 1.6305531 3.1213467
0.76803571 1.6287285 3.1208718
0.78662992 1.6297625 3.121325
0.81124848 1.6296537 3.1224229
0.82964623 1.6273125 3.1214249
0.85274905 1.62902 3.12199
0.86396003 1.6241666 3.1206665
0.88487995 1.6264099 3.1229799
0.90986294 1.6257 3.1226857
0.93161297 1.62817 3.1223402
0.95378602 1.62808 3.12205
0.96908122 1.6315749 3.1211123
0.98221666 1.6254334 3.12395
1.0068334 1.6275889 3.1233001
1.030075 1.6282501 3.1224
1.0533501 1.6271751 3.1223376
1.074375 1.6321249 3.121325
1.0871818 1.6305636 3.1220453
1.1073786 1.6302357 3.1222997
1.1317734 1.6309 3.1210268
1.1505928 1.6281356 3.1227715
1.170939 1.6317501 3.1211944
1.190975 1.6308 3.1208398
1.2071655 1.6318578 3.1222346
1.2239 1.6342334 3.1210001
1.2546152 1.6291155 3.1205232
1.2718716 1.6307214 3.1216929
1.2883769 1.6302383 3.1215618
1.3115143 1.6307429 3.1223788
1.3340079 1.6291231 3.1218615
1.3439857 1.6316713 3.1237142
1.3660737 1.631379 3.122179
1.3899295 1.6304411 3.1224706
1.4119471 1.6304235 3.1219997
1.4327183 1.6291728 3.1233819
1.45145 1.626125 3.1232998
1.4658922 1.6315844 3.122246
1.4876214 1.6322714 3.123307
1.5118699 1.63148 3.1231599
1.5340751 1.6324831 3.1239417
1.5513616 1.6310384 3.1211925
1.56469 1.6313601 3.1226301
1.58636 1.6358299 3.12608
1.6102608 1.6307175 3.1224308
1.6339102 1.6367298 3.1252999
1.6534427 1.636043 3.1280856
1.6624666 1.6290666 3.1237667
1.6864214 1.6338643 3.1238353
1.709742 1.6319314 3.1231527
1.73192 1.632388 3.1236441
1.7535813 1.6326187 3.1241937
1.7676235 1.6296881 3.1213648
1.7862214 1.6335783 3.1251214
1.8095959 1.6332124 3.1246789
1.8332626 1.6310874 3.1230662
1.8527048 1.6336905 3.1259668
1.8723761 1.6318239 3.121824
1.8888568 1.6298134 3.123883
1.9095213 1.6321456 3.1245303
1.9299368 1.6305827 3.1243217
1.9513849 1.6321412 3.1243596
1.9710636 1.6300751 3.1221888
1.9894118 1.6296521 3.1233804
2.0092468 1.6307875 3.1247454
2.0291157 1.6300414 3.1249495
2.0501127 1.6301985 3.1252224
2.0709372 1.6304741 3.1238482
2.0891891 1.6299652 3.12573
2.1086884 1.6293194 3.1253941
2.1297746 1.6296726 3.1259675
2.1510036 1.6302003 3.1257575
2.1620221 1.6290667 3.1234446
2.2318306 1.6281846 3.1277721
2.2491477 1.6291251 3.1280344
2.2697382 1.6297492 3.1280656
2.2912998 1.6298134 3.128336
2.3114173 1.6287918 3.1294975
2.3294928 1.6288394 3.1298532
2.3494587 1.6283878 3.13041
2.3689682 1.6286793 3.1309021
2.3913522 1.6288037 3.1308961
2.4114301 1.6288617 3.1292169
2.4305041 1.6293958 3.1298578
2.4487426 1.6299088 3.131995
2.4706676 1.6302847 3.1316917
2.4899976 1.6292546 3.1326978
2.509367 1.6296455 3.1326838
2.5298691 1.6297097 3.1329539
2.5491021 1.6302248 3.1326602
2.5700355 1.6300062 3.1327438
2.5908496 1.629805 3.1335621
2.609226 1.6297563 3.1338913
2.6294432 1.6289207 3.1346779
2.6489923 1.6295635 3.1343172
2.6698935 1.6300712 3.1342332
2.6903734 1.6288613 3.1357999
2.7103591 1.6286297 3.1354678
2.728503 1.6285702 3.1356919
2.7485065 1.6294062 3.1358707
2.7710876 1.6293099 3.1356637
2.7918305 1.6292521 3.1357558
2.8103507 1.6283879 3.1360085
2.8269548 1.6292293 3.1362195
-0.044605501 1.6521375 3.1255124
-0.035195 1.6464 3.1292
-0.00287065 1.6523499 3.1283998
0.013980282 1.6473401 3.1278801
0.038208999 1.65056 3.1289601
0.053106751 1.647025 3.1291752
0.061986752 1.647975 3.12975
0.092479199 1.65332 3.12902
0.10971557 1.651389 3.1293554
0.13832666 1.6501166 3.1300333
0.14816001 1.6419001 3.1289001
0.16718626 1.6501626 3.1285875
0.18827002 1.6439 3.1278999
0.21223876 1.6505251 3.1273375
0.23360164 1.6472667 3.12625
0.24630092 1.6517001 3.127809
0.26683 1.6504111 3.1272666
0.28566 1.6498287 3.1264431
0.31202 1.65328 3.12486
0.32824126 1.6523374 3.1247375
0.35212544 1.6496001 3.1252999
0.37177902 1.6516201 3.1259398
0.38809109 1.6473333 3.1254222
0.40986109 1.6491555 3.1244333
0.43253183 1.6502311 3.1250625
0.45335004 1.6487362 3.1236184
0.46987751 1.6499749 3.1243374
0.48783767 1.6525538 3.1247306
0.50948578 1.6510642 3.123143
0.53145844 1.6491104 3.1232002
0.55452663 1.6508334 3.1224
0.56927407 1.6499647 3.1232822
0.58976692 1.6530691 3.1221309
0.60758328 1.6502999 3.1228886
0.63111937 1.6502059 3.1221294
0.65339386 1.6505076 3.1217539
0.66817164 1.6510111 3.1224387
0.6887756 1.649775 3.1223376
0.70831597 1.6510198 3.1216731
0.72995889 1.6500388 3.1218779
0.75114936 1.6492779 3.1214945
0.76614499 1.6490499 3.1218083
0.78837329 1.6515933 3.1213002
0.80790472 1.6482881 3.1215353
0.83146203 1.6477101 3.1224101
0.85443908 1.6480751 3.1220169
0.86761665 1.6477166 3.1217
0.88834 1.64715 3.1218166
0.90974575 1.6495332 3.1213834
0.93186265 1.6486467 3.1221998
0.95342612 1.6468844 3.1219926
0.96816003 1.6504501 3.1224
0.98520732 1.6465092 3.123091
1.0079833 1.6487669 3.1234331
1.0305643 1.6486785 3.1226928
1.0545455 1.6480002 3.1236365
1.0722188 1.6490563 3.1221123
1.0852 1.6454 3.1237166
1.1089906 1.6494571 3.1229191
1.1298723 1.6473389 3.1231833
1.1514137 1.6483364 3.1230185
1.1722176 1.649703 3.122468
1.1905789 1.651758 3.1218944
1.2083963 1.648982 3.1233819
1.222025 1.6533999 3.1206751
1.2529072 1.6487857 3.1208644
1.269325 1.6486312 3.1228626
1.2863723 1.6464611 3.1227946
1.3094999 1.6486728 3.1226408
1.3316083 1.6458668 3.1241252
1.3474665 1.6516832 3.1222084
1.3660954 1.6482501 3.1233819
1.3883353 1.6470059 3.1228998
1.4121143 1.6494215 3.1229432
1.4316635 1.6485955 3.123291
1.4517801 1.6477101 3.1227596
1.4682083 1.6462917 3.1232498
1.4892581 1.650537 3.122226
1.5103292 1.6477412 3.1231883
1.5341924 1.6445847 3.1239767
1.5525215 1.6469928 3.1220498
1.5671831 1.6467834 3.1231501
1.5853111 1.6449224 3.1244779
1.611806 1.6468235 3.1236057
1.6298938 1.6469812 3.124275
1.6533287 1.6495857 3.1229999
1.667135 1.6520001 3.1208751
1.6867374 1.6485125 3.1231937
1.70925 1.6485043 3.1226828
1.7306682 1.6481453 3.1227682
1.7495266 1.6461931 3.1225734
1.7685705 1.6507058 3.1214824
1.7856237 1.6497176 3.1236174
1.808792 1.6511601 3.1224041
1.8325888 1.6497056 3.1235943
1.8515645 1.6499941 3.1239762
1.8712729 1.6493655 3.1214156
1.8878869 1.6518291 3.1236131
1.909397 1.6483513 3.1233923
1.9311209 1.6513472 3.1231525
1.9504764 1.6514703 3.12203
1.9707828 1.6503869 3.1227307
1.9895791 1.6507831 3.1232891
2.0099516 1.6504053 3.1235132
2.0296521 1.6501813 3.1236827
2.0501578 1.6502945 3.1242657
2.0703347 1.6503603 3.1241736
2.0892999 1.6503711 3.1248989
2.1105015 1.6513333 3.1264129
2.1287537 1.6499999 3.1251025
2.149642 1.650542 3.1254096
2.1621385 1.6508307 3.122946
2.2316201 1.6495602 3.128278
2.2489963 1.6498584 3.1281555
2.2692952 1.6501164 3.1281884
2.2910466 1.6499845 3.1291707
2.3108642 1.6490582 3.1293638
2.3300884 1.6496251 3.1295018
2.3490412 1.6481813 3.1300354
2.3695309 1.6495306 3.1307609
2.3896804 1.647706 3.1315038
2.4103384 1.6498936 3.1301246
2.4283657 1.6509216 3.128552
2.4489465 1.6504267 3.132148
2.4704657 1.6503675 3.1316843
2.4903653 1.6513948 3.1324873
2.5086114 1.6509594 3.1330979
2.5304608 1.6507305 3.1332932
2.5502386 1.6503497 3.1337545
2.5695162 1.6501718 3.133744
2.5892229 1.6515491 3.1341493
2.6096325 1.6513777 3.1343594
2.6291804 1.651137 3.1344543
2.6488407 1.650939 3.1341836
2.6712818 1.6507552 3.1346927
2.6904166 1.6505141 3.1356478
2.7097311 1.650146 3.1361351
2.7293959 1.6498246 3.1362877
2.748944 1.6489156 3.1360981
2.7706301 1.6505041 3.1357236
2.7908978 1.6503401 3.1361837
2.8096533 1.6499372 3.1367552
2.8263605 1.650215 3.1359367
-0.045855574 1.6726999 3.126857
-0.022115 1.6626 3.1278
-0.0026357002 1.6677749 3.1287749
0.017484749 1.6691251 3.1287999
0.033785332 1.665 3.1277666
0.044683501 1.6651 3.13025
0.06719584 1.6735667 3.1306334
0.090798497 1.6694601 3.1287103
0.109005 1.6698418 3.1295083
0.13390401 1.66996 3.1296
0.14674334 1.6670333 3.1299334
0.16488834 1.67275 3.1291168
0.18769334 1.6681668 3.1278164
0.21038625 1.6700125 3.1278875
0.23271124 1.6688499 3.1272502
0.24685499 1.668925 3.1275499
0.2660054 1.6710229 3.1277308
0.28894383 1.6671846 3.1270616
0.30805299 1.66959 3.12571
0.33175084 1.6705666 3.1256249
0.3491925 1.6682625 3.1251249
0.36676237 1.6692295 3.1259646
0.38888091 1.6692452 3.1265547
0.41071698 1.6680691 3.1245232
0.43304312 1.6712077 3.1242383
0.45081383 1.6686078 3.124023
0.46855891 1.6664221 3.1248446
0.48608065 1.6691643 3.1249144
0.50833124 1.67035 3.1239371
0.53210944 1.6695262 3.1227839
0.55174005 1.6686784 3.1230714
0.5661934 1.6702999 3.12395
0.58738732 1.6681534 3.1231134
0.60692412 1.6719251 3.1228583
0.63285005 1.6716461 3.1223073
0.65205503 1.6688875 3.122781
0.66962397 1.6697332 3.1228468
0.68803793 1.6713375 3.1229541
0.7097711 1.6705177 3.1226709
0.72933578 1.6703262 3.1219566
0.75139588 1.6696939 3.1218002
0.77050287 1.6698571 3.1209428
0.78765935 1.6706586 3.1221058
0.8098954 1.6699154 3.1216962
0.82983589 1.6705998 3.1216419
0.85553199 1.6723601 3.1227498
0.86842251 1.6745501 3.1220503
0.88804913 1.6711 3.1220415
0.90900612 1.6701001 3.1223056
0.92988497 1.6726645 3.1215858
0.95209187 1.6684624 3.12255
0.97263402 1.6676201 3.1208398
0.98498297 1.66904 3.1231799
1.0070332 1.6701666 3.1235418
1.0302732 1.6709933 3.1233335
1.048755 1.6706202 3.12185
1.07265 1.6701999 3.1214163
1.0873107 1.6719842 3.122684
1.1090591 1.6707639 3.1228364
1.1291792 1.6714457 3.1230919
1.1502732 1.6695335 3.1221502
1.1720911 1.6702764 3.1222973
1.190009 1.6711001 3.12185
1.2068285 1.6685034 3.1231675
1.2226 1.6679001 3.1205602
1.2507908 1.6670636 3.1214454
1.2696184 1.6697036 3.123174
1.2881668 1.6701001 3.1233618
1.3109888 1.6695147 3.1236148
1.3298571 1.6688499 3.1221786
1.3463248 1.6679449 3.1233954
1.3658167 1.6708041 3.1228378
1.388943 1.670018 3.1224818
1.4099867 1.667639 3.1241348
1.4315572 1.6710629 3.1226285
1.4493412 1.6705059 3.1219764
1.468643 1.6683856 3.1231289
1.4906075 1.6695259 3.1234298
1.5109957 1.6693667 3.123642
1.5351684 1.6679684 3.1250999
1.5521332 1.6681612 3.1226444
1.5685999 1.6687356 3.1230283
1.5847168 1.6682557 3.1247666
1.610975 1.6695282 3.1234562
1.6327664 1.6680952 3.1246524
1.6531544 1.6693543 3.1229331
1.6685718 1.6696162 3.1220202
1.6877078 1.6683885 3.1252694
1.7092766 1.6686265 3.1246901
1.7317742 1.6677935 3.124855
1.7534106 1.6684965 3.1252787
1.7690151 1.66728 3.1214547
1.7872295 1.6674215 3.1246486
1.8085203 1.6673707 3.1250823
1.8304001 1.6690476 3.1236496
1.8517469 1.6672435 3.125397
1.8691608 1.6699716 3.1217391
1.8876575 1.6694152 3.1248214
1.908908 1.6688948 3.1240683
1.929679 1.6696669 3.1243727
1.9509501 1.6700521 3.1239083
1.971652 1.6706791 3.1225624
1.9905757 1.6709598 3.1243737
2.0089924 1.6703944 3.1240263
2.0296125 1.6710144 3.1239471
2.0499902 1.6704835 3.1242268
2.0708451 1.6705906 3.1242788
2.0907958 1.6714317 3.1250582
2.1103244 1.6708676 3.1248553
2.1292892 1.6707133 3.1252189
2.1487339 1.6699924 3.1261752
2.1620736 1.6708667 3.1262534
2.2330539 1.6726054 3.1277671
2.2498684 1.6710957 3.1286871
2.2685201 1.6702896 3.1284618
2.2897129 1.6714147 3.1291189
2.3104432 1.6708195 3.1303966
2.329381 1.6707693 3.1301131
2.3501036 1.6714604 3.1311326
2.3693037 1.6702957 3.1309879
2.3899 1.6699018 3.1318123
2.4111998 1.6700553 3.1306903
2.4289637 1.6704686 3.1303017
2.4500921 1.67033 3.1332357
2.4713912 1.6698277 3.1328783
2.491204 1.6698917 3.1335671
2.5100496 1.670591 3.1334291
2.5282915 1.6707249 3.1334331
2.5491538 1.6704153 3.1339967
2.5711119 1.6699905 3.1340978
2.5906684 1.6726342 3.1343505
2.6099474 1.6705116 3.134877
2.6292 1.6714772 3.1344268
2.6499553 1.6714277 3.1351924
2.6703501 1.6703826 3.135304
2.6905777 1.6716528 3.1356835
2.7091579 1.6714206 3.1360466
2.729656 1.6717675 3.1364586
2.7497358 1.6709657 3.1363657
2.7709095 1.6703216 3.1366594
2.7902143 1.671639 3.1368442
2.8098538 1.6718897 3.137151
2.8248627 1.667946 3.1356139
-0.046300668 1.6889 3.1248333
-0.022652 1.6972001 3.1290998
-0.0015356067 1.6958332 3.1298001
0.013389651 1.6860499 3.1286502
0.048839886 1.6940889 3.1304333
0.072246 1.6812 3.1317
0.087817803 1.6922801 3.1294
0.11082272 1.6897091 3.1294091
0.132696 1.6934999 3.131
0.15175 1.6903601 3.1298199
0.16590333 1.6918668 3.1304834
0.19371635 1.6879181 3.127991
0.20699668 1.6937 3.1274669
0.23327 1.6931125 3.1282253
0.25119749 1.688725 3.1264749
0.26731998 1.6893699 3.1279502
0.28573 1.6916399 3.12656
0.31105375 1.6896751 3.1268623
0.33149168 1.6901001 3.1262834
0.35173666 1.6872334 3.12535
0.36714461 1.6910155 3.1259847
0.3871775 1.6889 3.1258252
0.4079636 1.6889499 3.1251857
0.43067566 1.6903563 3.1246753
0.45179874 1.6875125 3.1234999
0.46837536 1.6885132 3.1247468
0.48867691 1.6903384 3.1235614
0.51005125 1.6893117 3.1236825
0.53213823 1.6905882 3.1237354
0.55419832 1.691 3.1226168
0.56967831 1.6893998 3.1233749
0.58772945 1.6869175 3.1234355
0.60795105 1.691045 3.1237299
0.6302495 1.6906412 3.1228292
0.65143061 1.6902946 3.1223736
0.66938627 1.6901685 3.1230061
0.68911517 1.6899 3.1224194
0.70740944 1.6892437 3.1228311
0.72957748 1.6909249 3.1225564
0.75159496 1.6906909 3.1222544
0.77081543 1.6912133 3.1213667
0.78661942 1.6910613 3.1228113
0.80949831 1.6908921 3.1221917
0.83085269 1.6913053 3.1216683
0.85235578 1.6921155 3.1221578
0.87059391 1.6890385 3.1210229
0.88623822 1.6906 3.1227746
0.90896863 1.6907934 3.12236
0.92965072 1.6897286 3.1222858
0.95508575 1.6937 3.1230419
0.97081089 1.6900636 3.1214545
0.98962277 1.6902723 3.1223333
1.0084126 1.6921812 3.1235502
1.0275887 1.6914001 3.1226058
1.0508951 1.69107 3.1219101
1.0702001 1.6922232 3.1218534
1.08685 1.6909046 3.1222229
1.1081458 1.6912333 3.1224577
1.1298728 1.6910411 3.1231592
1.1496667 1.6916564 3.1227336
1.1717561 1.6911936 3.122916
1.1904631 1.6886894 3.1220524
1.2074646 1.6904417 3.1229646
1.2218833 1.6873165 3.1215668
1.2551125 1.6910375 3.1210685
1.2696725 1.6910172 3.1237619
1.2867651 1.6901522 3.1228783
1.3110644 1.6909359 3.1235821
1.3317876 1.6913812 3.1226187
1.3480346 1.69115 3.1227229
1.368229 1.6920549 3.1232324
1.3868185 1.6920035 3.1231556
1.4102515 1.6916 3.1225243
1.4305768 1.6908666 3.1223466
1.448343 1.6908141 3.1220715
1.4665571 1.6909034 3.1235676
1.4869035 1.6918787 3.1243746
1.5100923 1.6914424 3.1238501
1.5314103 1.6904829 3.1237178
1.5511999 1.688661 3.1210911
1.5670385 1.6898229 3.1234064
1.5859643 1.6894999 3.1236751
1.6105268 1.6904107 3.1235328
1.6306356 1.6903225 3.1237066
1.6527619 1.6904429 3.1244571
1.6670251 1.6886333 3.1227334
1.6878927 1.6889704 3.1247671
1.71095 1.6900382 3.1252267
1.7307061 1.6895218 3.1248624
1.7523303 1.6900485 3.1235237
1.768661 1.6905501 3.1208835
1.7890136 1.6894337 3.1243095
1.8088933 1.68933 3.1247401
1.830407 1.6911744 3.1243424
1.8516287 1.6899285 3.1245909
1.8713236 1.6917706 3.1219943
1.8895191 1.6891397 3.1242816
1.9083638 1.6904 3.1247835
1.9311728 1.6900795 3.1249006
1.9513745 1.689151 3.1244957
1.9714473 1.6897652 3.1229722
1.989234 1.689804 3.1253664
2.0082662 1.6896094 3.1252568
2.02948 1.6895934 3.1232412
2.0497208 1.6896685 3.1251435
2.0705922 1.6903549 3.1244352
2.0906522 1.6894867 3.1255722
2.1098127 1.6893699 3.126848
2.129961 1.6883693 3.1265132
2.1506753 1.6895001 3.1269591
2.162025 1.6908249 3.1271625
2.2324545 1.6908091 3.1287606
2.2492425 1.6904932 3.1296999
2.270422 1.6899841 3.1296942
2.2907321 1.6905254 3.1299338
2.3094025 1.6921978 3.1306515
2.3289092 1.6908593 3.1307971
2.3486378 1.6906832 3.1307902
2.3699055 1.690413 3.1311276
2.3908017 1.6908904 3.1318638
2.4104583 1.6911581 3.131124
2.4286845 1.6892865 3.1304114
2.44961 1.6910369 3.1327393
2.4706905 1.6894286 3.1331668
2.4902883 1.6885839 3.1332862
2.5109839 1.6895276 3.1338532
2.5283 1.6882334 3.1337304
2.5489302 1.6891186 3.134105
2.5699 1.6898725 3.1350574
2.5906882 1.6889186 3.1349537
2.6093259 1.6889721 3.1348283
2.6286652 1.6893979 3.1348758
2.6497803 1.6903863 3.1360106
2.67012 1.6903058 3.1353688
2.6904399 1.6902409 3.1365213
2.7103209 1.6910186 3.1367183
2.7288911 1.6914119 3.1366293
2.7492049 1.691182 3.1364176
2.7712433 1.6913394 3.1365848
2.7910497 1.6918639 3.1370852
2.809813 1.6908807 3.137074
2.8254166 1.689096 3.1370878
-0.046334997 1.7085222 3.1256113
-0.0084715318 1.709625 3.13025
0.012165837 1.7109874 3.1292002
0.025648 1.7119666 3.1289666
0.046593599 1.71092 3.1313999
0.0711345 1.7117701 3.1300702
0.087401599 1.70854 3.1300597
0.1101775 1.71145 3.1295252
0.13313 1.7073666 3.1308668
0.1506675 1.710925 3.1289499
0.17021 1.7139 3.1308599
0.1874925 1.71655 3.1286249
0.21073 1.7121571 3.1277428
0.23227075 1.7110231 3.1276
0.24626251 1.7117749 3.1282749
0.26707432 1.7094287 3.1282287
0.28577831 1.70585 3.1270831
0.30787197 1.71153 3.12624
0.33396253 1.705775 3.126725
0.354983 1.7099899 3.1259499
0.36548832 1.7099166 3.1274664
0.38763213 1.7106216 3.1264923
0.40899363 1.709391 3.1259453
0.43300772 1.7079384 3.1248922
0.45528999 1.7074125 3.1238501
0.46993911 1.7078637 3.1250274
0.49109727 1.7105637 3.1240182
0.50906157 1.7090735 3.1243052
0.53198624 1.7090813 3.1239188
0.55155998 1.7121438 3.1237311
0.5677433 1.7084 3.1245396
0.58793449 1.7111092 3.1230001
0.60866177 1.7099942 3.1226764
0.63228559 1.7102056 3.12255
0.65230232 1.7100824 3.1227119
0.66957223 1.7096945 3.1223278
0.68789148 1.7098788 3.1227844
0.70851362 1.7123786 3.1219287
0.72999859 1.709162 3.1221812
0.7507425 1.70919 3.1224351
0.77036375 1.7105856 3.122014
0.78898489 1.70933 3.12233
0.81086242 1.7102499 3.1213899
0.83171439 1.7101166 3.1218333
0.85156584 1.7104419 3.1216161
0.87082362 1.7084819 3.1212678
0.88987565 1.7110698 3.1216388
0.90986133 1.7117333 3.1219666
0.9303624 1.710875 3.1217
0.95540571 1.7121714 3.1221216
0.97232139 1.710095 3.1212399
0.98885763 1.7090411 3.1216764
1.0090619 1.7101667 3.1216667
1.0299844 1.7089001 3.1217213
1.0503733 1.7097117 3.1218767
1.0692333 1.70762 3.12134
1.0891651 1.7095699 3.12185
1.10939 1.7103949 3.1217301
1.1304692 1.7085735 3.1226115
1.151913 1.7097515 3.1222708
1.1727258 1.7113488 3.1219711
1.1900644 1.7099892 3.1224639
1.207858 1.7103764 3.1227524
1.2248001 1.7094333 3.1217222
1.2546278 1.7097335 3.1216555
1.2696645 1.7116258 3.122884
1.2877655 1.7110175 3.1223552
1.3094472 1.7108642 3.1221335
1.3311833 1.7102931 3.1220336
1.3490535 1.7106216 3.1222785
1.3687595 1.7117189 3.1225975
1.390741 1.7101589 3.1232774
1.4100769 1.7103373 3.1224995
1.4299895 1.7098341 3.1223605
1.4503335 1.7091334 3.1220369
1.4691582 1.710642 3.1233075
1.4896077 1.7122037 3.1233923
1.5093116 1.7116809 3.1230075
1.5334926 1.7128669 3.124155
1.5509137 1.7098365 3.122232
1.5690041 1.7125039 3.1233683
1.5889394 1.7132499 3.1247036
1.6092073 1.7130373 3.1241891
1.6319679 1.7122679 3.1247463
1.6517587 1.7125646 3.1228175
1.6691471 1.7100815 3.122122
1.6882498 1.7129334 3.1255434
1.7098632 1.7114185 3.124419
1.7307974 1.7118876 3.1242623
1.7509516 1.7109089 3.1228697
1.7699749 1.7091529 3.1220343
1.7894976 1.7106352 3.1236298
1.8099368 1.708222 3.1238537
1.8295361 1.7107093 3.1236718
1.8506182 1.7114309 3.1245975
1.8715851 1.7095118 3.1218617
1.8887178 1.7106576 3.1252513
1.9091318 1.7091982 3.1249969
1.9296482 1.7107252 3.1244085
1.9517547 1.7103467 3.1244478
1.9704394 1.7111435 3.1240261
1.989568 1.7103679 3.1252387
2.0093653 1.7091173 3.1252134
2.0300674 1.7089807 3.126569
2.0500925 1.7089721 3.1248348
2.0712109 1.7096967 3.1256108
2.0904889 1.709372 3.1269832
2.1100757 1.7098912 3.1267221
2.1292195 1.7101091 3.1276021
2.1495528 1.7110684 3.127686
2.1627066 1.7089801 3.1262999
2.2322147 1.7090179 3.1301529
2.2488 1.7090259 3.1285095
2.2704737 1.7090728 3.1288729
2.2914522 1.709581 3.1302016
2.3098152 1.7095248 3.1305873
2.3291078 1.710078 3.1316702
2.3479979 1.7098457 3.1314631
2.3701313 1.71021 3.1318033
2.3914542 1.7102259 3.1325023
2.411984 1.7118883 3.1312253
2.4293344 1.7098577 3.1311674
2.4500577 1.7096146 3.1327832
2.4709818 1.7097266 3.1340621
2.4902935 1.7080133 3.1339483
2.5090752 1.7081556 3.1336515
2.5279682 1.7082975 3.1337826
2.5486169 1.7094578 3.1342134
2.5714021 1.7084349 3.1348188
2.590791 1.707884 3.1354048
2.6099069 1.7088456 3.1352861
2.6296217 1.7082957 3.1350307
2.6487904 1.7102859 3.1355238
2.6706717 1.7097398 3.1356344
2.6919303 1.7097251 3.1369774
2.7098088 1.7086973 3.1368999
2.7279558 1.7100583 3.1364503
2.7485707 1.7096844 3.1368728
2.7715757 1.7088298 3.1369443
2.7918003 1.7099682 3.1371758
2.8095181 1.7092103 3.1373875
2.8235931 1.7107733 3.1368468
-0.045546457 1.7277634 3.1257997
-0.025041999 1.7359 3.1315
-0.0028486333 1.7266999 3.1303999
0.017577572 1.7319287 3.1299286
0.0304495 1.7280999 3.129925
0.052167751 1.73335 3.1303501
0.064574197 1.7333601 3.13114
0.090375088 1.7312584 3.1302335
0.11235 1.7274601 3.1303399
0.13357714 1.7292717 3.1313288
0.1518925 1.7319 3.1294498
0.16347626 1.7292126 3.129925
0.19404835 1.72975 3.1289999
0.21010666 1.7319335 3.12885
0.23042832 1.72955 3.12745
0.2485725 1.7313499 3.1286376
0.26767004 1.7262399 3.1288803
0.28818145 1.7314999 3.1274283
0.3108325 1.7318125 3.1276
0.33133501 1.7308501 3.1263497
0.35312444 1.7300333 3.1264889
0.37003303 1.7289798 3.1266701
0.38721806 1.7303101 3.1268699
0.41144836 1.7300833 3.1263168
0.43355581 1.7302833 3.1255834
0.4533442 1.7321 3.1252499
0.46688113 1.7309777 3.1262665
0.4873707 1.7304071 3.1245785
0.50692338 1.7284665 3.1251752
0.53071076 1.730377 3.1245539
0.55134726 1.7319274 3.1233909
0.56868666 1.7307749 3.123625
0.58585352 1.7308502 3.1238999
0.60944122 1.7314376 3.1231499
0.63251948 1.7297652 3.1240997
0.6526804 1.7303001 3.1234531
0.67016613 1.7334921 3.1236229
0.68833268 1.7306105 3.1233997
0.70785451 1.7293888 3.1228497
0.73116082 1.7296581 3.1230545
0.75284523 1.7300421 3.1224577
0.76944607 1.7293944 3.12235
0.78775793 1.7310202 3.1223252
0.80833995 1.7304857 3.1222188
0.82928956 1.7314212 3.1225212
0.85232329 1.7288057 3.1226554
0.86991662 1.732115 3.1211803
0.88930255 1.7310218 3.1225348
0.90909767 1.7298044 3.1223998
0.92922544 1.7292047 3.1224475
0.95240372 1.7296669 3.122014
0.97365117 1.7301112 3.1211386
0.98831797 1.73016 3.1220596
1.0085105 1.7306896 3.1225049
1.02771 1.7294 3.1223252
1.0500046 1.7291546 3.122236
1.0701001 1.728839 3.1216164
1.0892439 1.7300677 3.1221824
1.1098115 1.7297001 3.1232772
1.1284465 1.7295831 3.1226966
1.1509106 1.7291679 3.1230571
1.1726934 1.7309268 3.1226132
1.1908582 1.7296039 3.1223249
1.2080828 1.7301205 3.1229932
1.2254286 1.7287713 3.1213784
1.2532105 1.7315525 3.1217051
1.270789 1.7310666 3.1229296
1.2881222 1.7305526 3.1220415
1.3104374 1.729845 3.12205
1.330125 1.7287999 3.1218963
1.3492604 1.7303512 3.1227117
1.3695201 1.7307475 3.1222825
1.3908366 1.7308903 3.1224031
1.4102136 1.7301081 3.1226296
1.430921 1.7305131 3.1219423
1.4490839 1.7303356 3.1217997
1.4683335 1.7307444 3.12217
1.4900386 1.7309148 3.1227267
1.5103028 1.7315831 3.1223752
1.5294288 1.7320422 3.1224527
1.5498239 1.731431 3.1215863
1.5686206 1.7298447 3.121793
1.5895596 1.7304758 3.1220944
1.6098126 1.7310469 3.1229153
1.6317221 1.7313721 3.1229365
1.6507033 1.7305001 3.1211903
1.668946 1.7307838 3.1220031
1.688585 1.7310051 3.1227052
1.709084 1.7304794 3.122838
1.7295171 1.7295903 3.1226249
1.7495934 1.7307502 3.1223776
1.7699449 1.7288934 3.1226814
1.7899644 1.7309262 3.1239839
1.8096752 1.7306442 3.1234021
1.8293996 1.7304513 3.1231651
1.8509312 1.7301232 3.1230118
1.8706392 1.7290975 3.1215365
1.8889796 1.7296937 3.1238859
1.9094524 1.7301055 3.1241267
1.9290681 1.7297516 3.1238947
1.9498699 1.7304178 3.1245213
1.9698509 1.730234 3.1240368
1.9896392 1.7308409 3.1263919
2.0092411 1.7291234 3.1249461
2.0281961 1.7293097 3.1246271
2.0501914 1.7299391 3.1254876
2.0712655 1.7302897 3.1256735
2.0894134 1.72946 3.1265857
2.1100295 1.7303998 3.1271546
2.128763 1.7296728 3.1262047
2.1504159 1.7295874 3.1276441
2.1631062 1.7306873 3.1272438
2.2312846 1.7285627 3.1289845
2.24913 1.7291839 3.1294305
2.2706978 1.7284893 3.1296346
2.2909379 1.7298758 3.130343
2.3116457 1.7289617 3.1307597
2.3300164 1.7285626 3.1318488
2.3488979 1.728435 3.1314886
2.3695171 1.7301152 3.1322627
2.3913186 1.7296019 3.1324253
2.4103532 1.729041 3.13182
2.4294999 1.7300491 3.1315098
2.4498761 1.7293557 3.1338151
2.4707384 1.729982 3.1342056
2.4899354 1.7297375 3.1344268
2.5097024 1.7288848 3.1342504
2.5291243 1.7299976 3.1346295
2.5488214 1.729367 3.134567
2.5704215 1.7290747 3.1354842
2.5895791 1.7289649 3.1347451
2.6094916 1.7298514 3.1365051
2.6295953 1.7300828 3.1354868
2.6486206 1.7296335 3.1362288
2.6698999 1.729635 3.1362598
2.6906185 1.7287393 3.1367209
2.7100554 1.7277528 3.1371939
2.7279003 1.7282447 3.1369867
2.7500908 1.7289681 3.137264
2.7707045 1.7289721 3.1368101
2.7906537 1.7280327 3.137579
2.8089232 1.7283131 3.1376467
2.8242333 1.7289628 3.1367123
-0.045245554 1.7460334 3.1269109
-0.0080776755 1.7543499 3.1311252
0.015094 1.7476001 3.1291001
0.031377427 1.7543286 3.129329
0.048750199 1.7517201 3.13238
0.066870496 1.748 3.1322
0.086602993 1.752625 3.131175
0.10515 1.7528 3.1307001
0.13409428 1.7494428 3.1315141
0.155195 1.75025 3.1299832
0.1696375 1.7550249 3.1303
0.18469125 1.7513626 3.1298499
0.21178856 1.7532285 3.1284144
0.23227216 1.7484931 3.1284568
0.25043198 1.7451601 3.1286597
0.26625285 1.7506142 3.1280856
0.28999099 1.7541399 3.1280899
0.30776998 1.75337 3.1269701
0.33153889 1.7506 3.1274664
0.35131815 1.7517546 3.1263816
0.36533666 1.7502583 3.1267917
0.38775271 1.7477183 3.1270638
0.41109642 1.7500786 3.1267071
0.43286753 1.7503499 3.1256001
0.45258 1.7494072 3.1262357
0.47713751 1.7513499 3.1256251
0.48964596 1.7504098 3.1253598
0.50951338 1.7500905 3.1254001
0.53199428 1.7507477 3.1247687
0.55457252 1.7476 3.1248875
0.56644684 1.7507874 3.1249874
0.58757997 1.7501315 3.1246896
0.60828835 1.7505423 3.1237631
0.63005048 1.7508954 3.1245139
0.65367997 1.7490498 3.1233401
0.66953814 1.7509236 3.1241767
0.68658537 1.7497467 3.1238799
0.70850337 1.7494777 3.1232886
0.73056167 1.749424 3.123364
0.75241995 1.7500857 3.1236904
0.77123755 1.7510667 3.1226251
0.78744608 1.7503889 3.1229055
0.80809999 1.750465 3.1228957
0.82959592 1.7504443 3.1230078
0.85321641 1.7506392 3.1227257
0.87183821 1.7513177 3.1222413
0.8893953 1.7522572 3.1226904
0.90784013 1.7505053 3.1233635
0.9294858 1.7487262 3.1223791
0.95103437 1.7490401 3.1220117
0.97167802 1.7501067 3.1219599
0.98743331 1.7494191 3.1230381
1.0084916 1.7503333 3.1238167
1.0291834 1.7494233 3.12274
1.0506704 1.7499368 3.1229074
1.0729191 1.7495923 3.1229041
1.0883502 1.7501092 3.123332
1.1089157 1.7494686 3.1235161
1.1290032 1.7502129 3.1239769
1.1498466 1.7498755 3.1233149
1.1735128 1.7505031 3.1240516
1.1913869 1.7497002 3.122122
1.2081852 1.7482473 3.1245384
1.2253547 1.7492908 3.1226182
1.2519155 1.7505423 3.1219466
1.2691485 1.7496872 3.1241128
1.2880158 1.7502339 3.1229687
1.3104163 1.7499189 3.1226442
1.3304999 1.7499001 3.1224153
1.3494282 1.750913 3.1226795
1.3678893 1.7498271 3.1229138
1.3894953 1.749946 3.1230607
1.4104216 1.7497946 3.1233459
1.4306872 1.7485718 3.1235127
1.4506344 1.7500875 3.1222472
1.4687674 1.7496027 3.1228948
1.4892597 1.750357 3.1224315
1.5105454 1.7498181 3.1232791
1.5301836 1.7485282 3.1231449
1.5506648 1.7500111 3.1220837
1.5692225 1.7491621 3.1224253
1.5887641 1.7487916 3.1232581
1.6092796 1.7513478 3.1228228
1.63169 1.7494837 3.122606
1.6515166 1.7488689 3.122154
1.6698838 1.7507188 3.122468
1.6889541 1.7489567 3.1237514
1.7093019 1.7507644 3.1230915
1.7303324 1.7495489 3.1226695
1.7517303 1.7487023 3.1224954
1.7706573 1.7519751 3.12233
1.7891513 1.7496252 3.1233063
1.8088645 1.7503843 3.1235046
1.8299508 1.7491596 3.1235614
1.8505759 1.7490979 3.122988
1.8688476 1.7497927 3.1228497
