# .PCD v0.7 - Point Cloud Data file format
VERSION 0.7
FIELDS x y z
SIZE 4 4 4
TYPE F F F
COUNT 1 1 1
WIDTH 1451
HEIGHT 1
VIEWPOINT 0 0 0 1 0 0 0
POINTS 1451
DATA ascii
10.159311 -28.988693 -0.87834001
10.10962 -27.998468 -0.85115129
22.583597 -27.881439 -0.83209854
-44.771637 -27.688181 -0.91817111
10.084547 -27.656658 -0.84170675
-44.730606 -27.468885 -0.91555321
33.165352 -27.507509 -0.99944669
-44.765461 -27.296993 -0.91450608
10.067786 -27.343424 -0.83312082
-44.791134 -27.119961 -0.91328442
-44.909142 -26.807243 -0.91223729
-44.764717 -26.912132 -0.91101557
10.053348 -26.787819 -0.99777663
-44.881325 -26.599747 -0.90996844
-44.620003 -26.255747 -0.90298748
34.048489 -26.308531 -0.99805409
-44.641834 -26.080133 -0.90176582
-27.843906 -26.035086 -0.88409024
38.881485 -26.015934 -0.81590003
-44.706253 -25.929718 -0.90141678
-28.139462 -25.900169 -0.8869915
-27.962181 -25.981506 -0.88525075
9.9995565 -25.899351 -0.96811205
10.121494 -25.851904 -0.96811199
10.352339 -25.868046 -0.97160202
10.53499 -25.82658 -0.97264892
10.676897 -25.838505 -0.97491741
10.867204 -25.830032 -0.88921356
11.124596 -25.811592 -0.8477577
11.286088 -25.80534 -0.89371574
11.526927 -25.800449 -0.80793548
38.913055 -25.860456 -0.81485283
-44.97245 -25.707867 -0.90351111
-44.796154 -25.794138 -0.9015913
10.408124 -25.759439 -0.96881002
10.993621 -25.797747 -0.97788388
11.082502 -25.781446 -0.97858185
11.373152 -25.783474 -0.89417642
11.513124 -25.77272 -0.98434031
11.706593 -25.768303 -0.89809048
11.912753 -25.75461 -0.87073439
12.083365 -25.732435 -0.81280082
12.270814 -25.717793 -0.90427488
12.46377 -25.705391 -0.9065696
12.658148 -25.693823 -0.90892017
12.897817 -25.662537 -0.8211959
13.080058 -25.633846 -0.82281774
38.960724 -25.716053 -0.81415474
39.091496 -25.626413 -0.81520188
43.793419 -25.66909 -0.8853606
-45.084351 -25.490673 -0.90333652
15.291773 -25.557211 -0.85158056
15.501322 -25.541805 -0.85429943
43.830635 -25.506243 -0.88448799
-45.247639 -25.302402 -0.90420914
49.174549 -25.387144 -0.96529257
-45.423241 -25.027258 -0.90455818
-45.213272 -25.097029 -0.90194035
49.14727 -25.177839 -0.9631983
-45.510418 -24.889227 -0.90473276
21.34449 -24.82122 -0.93615192
49.541183 -24.998741 -0.96791047
-45.649891 -24.77953 -0.90595442
-27.200527 -24.652763 -0.85136336
21.474312 -24.735416 -0.93672425
21.636768 -24.686613 -0.93872768
-45.639488 -24.588568 -0.90420914
-27.225847 -24.52035 -0.8497386
-47.095135 -24.249323 -0.92393035
-46.841236 -24.305033 -0.9204399
-46.640606 -24.387201 -0.91799653
-27.259853 -24.242496 -0.84602493
-47.344662 -24.002682 -0.92585015
-47.108761 -24.069407 -0.92270869
-27.309977 -24.057585 -0.84405202
-47.562737 -23.925737 -0.92864251
-27.464518 -23.964788 -0.84532857
21.000151 -23.808853 -0.90781838
-47.566101 -23.740461 -0.92724633
20.948774 -23.600716 -0.90238059
-48.210136 -23.497049 -0.93544894
-47.866879 -23.516094 -0.93021327
-47.55085 -23.546539 -0.92550111
-48.337727 -23.37159 -0.93649614
-48.627602 -22.762331 -0.93649614
-48.635391 -22.579977 -0.93527448
-17.608253 -22.483828 -0.81652135
-17.45837 -22.432184 -0.90191042
-17.333435 -22.411476 -0.98800474
-17.544828 -22.299765 -0.93016177
-15.888814 -22.375391 -0.95694423
-15.73252 -22.369543 -0.95362872
-15.514698 -22.357138 -0.94891727
-15.075864 -22.31847 -0.93914545
-14.868799 -22.312977 -0.9349575
-14.702919 -22.291094 -0.93111861
-14.545821 -22.280584 -0.9278031
-14.335196 -22.262312 -0.92326617
-14.162928 -22.224346 -0.91890377
-19.349506 -22.10556 -0.83998954
-18.417288 -22.060955 -0.82167292
-18.031208 -22.017025 -0.81365943
-17.642477 -22.019318 -0.89527231
-17.563377 -22.133553 -0.89673114
-15.862886 -22.117601 -0.94909179
-12.865743 -22.125248 -0.89238012
-12.748327 -22.158493 -0.8913331
-11.888889 -22.082253 -0.87440687
-11.707766 -22.077053 -0.87126589
-11.529485 -22.07489 -0.86829948
-11.2927 -22.051027 -0.91737974
-11.135719 -22.049641 -0.92806458
-17.563629 -21.996632 -0.80478728
-16.626089 -21.921 -0.95938718
-16.459593 -21.91515 -0.95572269
-16.281544 -21.892305 -0.95136029
-16.124866 -21.896317 -0.9482193
-15.913486 -21.896172 -0.94385684
-12.824028 -21.895025 -0.88470227
-11.010109 -21.967419 -0.92309511
-10.079659 -21.965076 -0.90804172
-9.9409733 -21.934944 -0.90471029
-8.7030029 -21.880543 -0.88466036
-8.5380859 -21.864986 -0.88182664
-8.095418 -21.835611 -0.87486118
-7.8967633 -21.823294 -0.87186193
-7.753613 -21.824345 -0.93268406
-13.687422 -21.703369 -0.89464855
-13.493889 -21.688984 -0.89063513
-13.344312 -21.675816 -0.88749421
-12.806393 -21.708317 -0.87876934
-10.043707 -21.706577 -0.89864099
-7.6710377 -21.791008 -0.83657593
-7.5069857 -21.690983 -0.8621515
-6.4843464 -21.635401 -0.90950811
-6.378119 -21.65136 -0.90890348
-5.2548666 -21.647808 -0.89701319
-5.1072788 -21.631771 -0.89499784
17.845322 -21.700218 -0.89155543
-10.688036 -21.578003 -0.90467709
-10.492146 -21.56283 -0.91388053
-10.318278 -21.543207 -0.87589121
-9.604435 -21.437326 -0.94598514
-9.500886 -21.409481 -0.87989247
-9.314373 -21.417892 -0.94054383
-9.1106339 -21.402134 -0.93671465
-8.9662495 -21.430653 -0.93550551
-8.7972536 -21.403381 -0.93187797
-6.2915096 -21.593439 -0.90567899
-3.8860674 -21.523804 -0.88068914
-3.4748018 -21.538349 -0.87847233
-3.2977371 -21.513901 -0.87638992
-3.0886648 -21.501165 -0.87464327
-2.8826551 -21.486074 -0.87289667
-2.7111101 -21.47654 -0.8716203
-1.7197367 -21.421623 -0.96376246
-1.4496632 -21.403133 -0.86376065
-1.3260913 -21.405773 -0.99454802
17.892765 -21.516283 -0.93187881
-9.4056416 -21.399582 -0.81490326
-9.2846794 -21.392403 -0.81298375
-9.0870132 -21.378092 -0.84122837
-8.8788834 -21.380247 -0.84875822
-8.7662373 -21.378002 -0.80548036
-7.2597494 -21.271587 -0.90507436
-7.0740752 -21.272591 -0.90272313
-6.8893814 -21.273663 -0.90043914
-6.7359552 -21.25462 -0.89781928
-6.5162344 -21.255085 -0.89519942
-5.2932115 -21.365803 -0.88633204
-4.923243 -21.300272 -0.88028616
-1.7192994 -21.393185 -0.86416364
-1.4269505 -21.399313 -0.99454802
-1.2911599 -21.386831 -0.8954193
-1.1000983 -21.38452 -0.92757463
-0.89851493 -21.363943 -0.92626381
-0.6976018 -21.348124 -0.92526227
-0.49713221 -21.333742 -0.92443585
-0.29589501 -21.32416 -0.92382717
-0.096079431 -21.31101 -0.92318195
0.1034494 -21.297653 -0.92260379
0.30336761 -21.280762 -0.92193824
0.46980667 -21.274448 -0.92179877
0.69134253 -21.231087 -0.85529631
1.5670207 -21.211868 -0.92134994
1.6219988 -21.200367 -0.85610247
1.8234502 -21.204048 -0.85690856
18.057503 -21.337093 -0.97474289
18.225201 -21.329607 -0.89025354
-6.0577993 -21.161697 -0.88633204
-5.8745065 -21.147593 -0.88377935
-5.7013226 -21.167393 -0.8827045
-5.5264778 -21.179247 -0.88136095
-5.343122 -21.147293 -0.8782708
-4.6597576 -21.062786 -0.86859733
-4.4990449 -21.057934 -0.89984369
-4.2920713 -21.056953 -0.91783428
-4.1152267 -21.087057 -0.94395256
-3.9093411 -21.041901 -0.9488678
-2.4925427 -21.037077 -0.90475607
-2.308053 -21.023388 -0.91617745
-2.1081426 -21.027639 -0.91546512
-1.9129728 -21.024355 -0.92731571
-1.7965688 -21.02058 -0.9783048
1.714064 -21.187885 -0.93377411
1.9119686 -21.184986 -0.9344238
-1.8824066 -20.988232 -0.84844422
0.75305295 -20.836464 -0.90313971
0.8852753 -20.819529 -0.90263891
1.1280655 -20.809992 -0.89002407
1.4390646 -20.815359 -0.90380538
4.9823451 -20.921698 -0.99733257
1.0133617 -20.795422 -0.90183896
1.2968427 -20.782104 -0.88924968
1.4793013 -20.764889 -0.96531022
4.9693136 -20.619368 -0.91877896
5.3319454 -20.639376 -0.98851478
5.5044718 -20.650871 -0.99106729
5.0977635 -20.586201 -0.91867113
5.3004708 -20.582592 -0.90773618
5.4580278 -20.570503 -0.85690856
-15.287585 -20.026003 -0.87842035
-15.362604 -19.993723 -0.87911826
-13.575932 -19.879105 -0.90442884
8.154561 -19.701334 -0.85852081
-9.2205725 -19.59057 -0.87182182
-7.5485716 -19.577705 -0.84481668
-7.3971004 -19.426916 -0.96391797
-4.3585787 -19.410091 -0.800883
8.256485 -19.512423 -0.85307944
8.4883957 -19.49411 -0.98596227
8.667696 -19.573563 -0.99269164
-7.4015207 -19.377281 -0.83514321
-4.3338184 -19.379887 -0.92075747
-1.4023011 -19.208076 -0.89291197
8.04671 -19.383461 -0.97319978
8.732481 -19.282158 -0.85227334
8.9048853 -19.285406 -0.98503411
14.784857 -19.221483 -0.97661781
-1.3322191 -19.072878 -0.88641471
0.58232737 -19.12047 -0.88687873
0.64340246 -19.148497 -0.88827103
8.1075888 -19.021906 -0.95881295
8.3725901 -19.114321 -0.84018147
8.5988445 -19.013439 -0.96763074
8.7629118 -19.1091 -0.84642899
14.781547 -19.106171 -0.8857286
14.819328 -19.017887 -0.97097498
-28.614359 -18.905729 -0.98079872
7.810894 -18.983721 -0.95185161
8.0820713 -18.96209 -0.95579636
14.890915 -18.937597 -0.89207041
15.139687 -18.914429 -0.91027081
-28.372738 -18.618336 -0.97049564
-28.434977 -18.468067 -0.96963704
-28.680288 -18.308735 -0.9730714
-28.546951 -18.350101 -0.97049564
-21.162693 -18.388298 -0.88958704
-11.242473 -18.392902 -0.99965298
-11.114075 -18.340563 -0.95071608
-10.953928 -18.270168 -0.85771465
6.9234161 -18.356552 -0.90961921
-21.08654 -18.035831 -0.96758854
6.9629865 -18.031408 -0.8961606
-21.305359 -17.87804 -0.96985698
-21.198004 -17.95891 -0.96881002
-14.369774 -17.844404 -0.92260754
6.4833679 -17.861383 -0.93744159
-14.729204 -17.601044 -0.92421985
6.5798941 -17.69294 -0.93122554
-14.334492 -17.461002 -0.90970963
-2.8602304 -16.878128 -0.94144994
-2.7830806 -16.906216 -0.94228899
11.856542 -16.882849 -0.89360094
-2.7946537 -16.678909 -0.97577602
11.879195 -16.69343 -0.88748413
11.953435 -16.522371 -0.88331121
12.079556 -16.441492 -0.89617169
12.306484 -16.423792 -0.82627589
-6.5318174 -16.275347 -0.89093685
12.113898 -16.38031 -0.82023001
-6.5136123 -16.189978 -0.80891144
-33.568619 -15.937517 -0.86180806
-13.277254 -15.40617 -0.94303381
-13.106758 -15.486012 -0.89107639
-43.540577 -15.275921 -0.80473047
-13.258986 -15.395557 -0.81801319
-13.183313 -15.394689 -0.93978524
-28.38484 -14.240908 -0.90810454
-48.833107 -13.261888 -0.88256818
-38.152523 -13.284133 -0.93701029
-49.118435 -13.008576 -0.88623315
-48.720016 -13.066956 -0.87977582
-38.22242 -13.173986 -0.93770659
8.0935926 -13.081023 -0.91068298
-49.857498 -12.869703 -0.89810079
8.1427031 -12.932233 -0.91271907
3.4473174 -12.467674 -0.89788765
3.5348792 -12.333408 -0.9103176
3.699074 -12.275846 -0.90195906
3.8696094 -12.281363 -0.90587044
5.9564943 -12.265744 -0.9673934
-31.529385 -11.802854 -0.96276826
-30.978292 -11.81903 -0.94817227
-41.359138 -11.685922 -0.99689358
-31.164883 -11.778179 -0.9527514
-41.461864 -11.504232 -0.99805403
-49.908974 -11.388304 -0.89286512
-41.332394 -11.258821 -0.993644
-41.242062 -11.095142 -0.99062669
-41.601063 -10.9119 -0.99758989
-41.325024 -10.978363 -0.9917872
-41.61578 -10.776145 -0.99712563
4.9627757 -10.060943 -0.88921177
4.9923668 -9.9420815 -0.8762964
5.0399203 -9.845294 -0.87119824
5.1384773 -9.7525158 -0.86531621
5.2993741 -9.6681871 -0.86846441
5.4445152 -9.6587496 -0.84619147
5.4660301 -9.5954609 -0.89692014
-26.392477 -8.4844894 -0.96671599
-24.349066 -8.4660196 -0.89883649
-9.9306307 -8.4879656 -0.96914309
-24.308372 -8.3236237 -0.89587009
-37.256058 -8.1620998 -0.88455445
-24.496508 -8.0455542 -0.89901102
-24.349274 -8.1245022 -0.8949976
-37.93681 -7.6957412 -0.89778447
-29.465248 -7.3265562 -0.86818004
-29.529936 -7.0967755 -0.86841846
-22.240726 -7.1134939 -0.94034231
-22.123444 -7.0364299 -0.80931926
-31.815748 -6.8109593 -0.93042791
-31.1721 -6.9239664 -0.913113
-29.629185 -6.9240623 -0.8700403
-22.053646 -6.9136286 -0.89951301
-21.976353 -6.8379474 -0.80233943
-31.818764 -6.6027999 -0.92928308
-31.748959 -6.6924186 -0.92785215
-22.068893 -6.6986403 -0.86645913
-32.014496 -6.5443892 -0.93443465
-22.307089 -6.4488087 -0.8513453
-22.144539 -6.5331812 -0.86737657
-14.371534 -6.2543116 -0.86175001
-14.402744 -6.0394378 -0.99647492
-14.337504 -6.0825515 -0.88385773
-17.6733 -5.9870005 -0.86506647
-17.580811 -5.9628921 -0.97083193
-14.478539 -5.8818049 -0.91319251
-14.376541 -5.9486732 -0.8694427
-14.576118 -5.7886143 -0.90475804
-6.836452 -5.665678 -0.86243802
-6.7743607 -5.7054424 -0.9952572
-6.8603983 -5.4998593 -0.90760773
-7.0161524 -5.2296839 -0.82344681
-6.9494219 -5.3156438 -0.91908479
-7.2425065 -5.1728263 -0.83756304
-7.0833941 -5.1680846 -0.90513486
-7.8513718 -4.9628658 -0.87426525
-2.6964326 -4.7714396 -0.98782736
0.44398856 -4.6032691 -0.83241874
0.51941973 -4.5042157 -0.81601733
0.69692498 -4.4439621 -0.80955398
0.89939374 -4.4487925 -0.81689173
1.0431286 -4.5382409 -0.83822417
2.8150744 -4.4016013 -0.94138348
-1.8519468 -4.2226915 -0.82996273
-1.6966529 -4.2918315 -0.83075136
-1.5882379 -4.3328748 -0.83063251
2.8631718 -4.3552127 -0.93908679
3.0957487 -4.2576861 -0.94852871
-2.2484937 -4.0996218 -0.84170753
-2.0967429 -4.1081791 -0.83024967
-1.944512 -4.1659365 -0.82750636
3.0303924 -4.0859537 -0.91637522
-5.9154611 -3.059068 -0.92099178
-5.4700322 -3.1396985 -0.87193835
-6.096859 -2.8225386 -0.92916745
-5.9499502 -2.932868 -0.9173404
-5.6434693 -2.8867478 -0.87634766
-5.4790449 -2.9221053 -0.85843498
-5.6606822 -2.7182436 -0.86808026
-1.8294879 -0.46934664 -0.86329371
-1.7953166 -0.53919554 -0.85644221
-1.8306535 -0.29607755 -0.84745485
-1.8402131 -0.10226438 -0.8421523
-1.8375707 0.099825695 -0.84089309
-1.7957428 0.080006912 -0.82049274
-1.8196424 0.29367355 -0.84222275
-1.7932047 0.33375704 -0.83318084
-1.8134135 0.46836743 -0.85595417
-1.7842947 0.51812297 -0.84904099
-1.7777624 0.61324757 -0.85926175
-35.202873 3.9194155 -0.82142168
19.060591 3.879385 -0.90184575
36.003334 3.8648376 -0.8397581
19.131626 4.1135449 -0.9072988
33.555828 4.1873794 -0.96706128
33.618431 4.087975 -0.96849227
-35.259979 4.3750029 -0.82397491
-35.164371 4.2510114 -0.82142168
33.502098 4.2935524 -0.96591645
33.528088 4.4039998 -0.96706128
-45.825314 4.8624735 -0.80368328
-45.751045 4.9919167 -0.80263615
-40.879131 5.2023664 -0.95581084
-40.703972 5.3100758 -0.95209718
33.439533 5.3579993 -0.96849227
-40.49881 5.412775 -0.94768715
33.452129 5.4678574 -0.96935081
34.782604 5.4076052 -0.81631535
-38.26722 5.666357 -0.89720416
-37.187653 5.6857605 -0.87248498
-38.275913 5.9752054 -0.89848077
-30.708004 6.0951986 -0.89522564
-30.683783 6.2910681 -0.89565492
-40.249516 6.5497365 -0.94583035
-30.736992 6.4530253 -0.89808762
32.987202 6.5753903 -0.96190971
-40.110886 6.7140594 -0.94327712
-23.532585 6.6337643 -0.98467904
-23.117575 6.7072496 -0.8913399
-40.18721 6.9217682 -0.94583035
-23.092503 6.8776903 -0.9052276
-40.076645 7.0324335 -0.94374138
-39.994053 7.1547346 -0.94234872
-23.216961 7.1137061 -0.91224444
-23.166857 7.0210261 -0.90941066
-40.010723 7.2875137 -0.94327712
-23.328711 7.2915239 -0.93150711
-18.82761 7.2858257 -0.93607247
-18.688238 7.2997074 -0.80773503
-15.803085 7.2606254 -0.80612683
-15.670283 7.2518611 -0.91690594
-15.529026 7.3492789 -0.9448033
-40.036781 7.4222794 -0.94443768
-39.924847 7.531342 -0.94234872
-23.440319 7.4955955 -0.99112803
-15.47355 7.5148292 -0.92464626
-48.891277 7.6880302 -0.86319602
-36.077099 7.7493415 -0.85577333
-15.485376 7.6888747 -0.91333044
-48.699047 7.814683 -0.86022907
-48.476913 7.9353499 -0.85673863
-15.560648 7.8112574 -0.80705506
-8.0920134 7.9600129 -0.88855541
-7.8915439 7.9586115 -0.88593417
-4.8766956 7.8875632 -0.87285358
-4.7060266 7.886313 -0.86438394
-4.5338035 7.9369245 -0.86030585
-48.510918 8.0974817 -0.85778576
-47.814964 8.1358662 -0.84591812
-8.2281485 8.0069294 -0.81408668
-7.8100953 8.0205269 -0.88184941
-7.7346416 8.1072044 -0.8801617
-4.4716568 8.0615387 -0.86767769
-47.779316 8.2843409 -0.8457436
-47.526592 8.3944244 -0.84172958
-39.602871 8.3764257 -0.93886715
-7.6834097 8.3101788 -0.87367141
-2.801584 8.3986301 -0.99488336
-2.757338 8.397562 -0.9932009
-47.165398 8.4835577 -0.83579576
-37.633919 8.5797644 -0.89523131
-7.705595 8.5091953 -0.87418747
-2.8050992 8.4150286 -0.8347398
-2.7591903 8.4092293 -0.83285761
-47.012867 8.7614307 -0.83405048
-46.971313 8.6010876 -0.83282876
-39.20005 8.6779985 -0.93120766
-34.474846 8.7189732 -0.82467115
-7.7145615 8.6111193 -0.93916637
-0.63611871 8.7525949 -0.90590316
-0.49330023 8.6793556 -0.89737159
-0.30142477 8.6767607 -0.89619285
-0.13783231 8.757288 -0.90419376
-33.61237 8.841239 -0.99396378
-33.545792 8.9364929 -0.99281901
-0.70797521 8.8307762 -0.9416225
-0.033021618 8.8243465 -0.92718536
0.029410351 8.8983469 -0.87801474
-33.676903 9.1416092 -0.99797052
-3.7558689 9.0636101 -0.92367202
1.8904164 9.1422119 -0.87873536
-33.566055 9.2815685 -0.99596715
-46.401917 10.165387 -0.8284657
-46.340473 10.3046 -0.82794213
-46.259106 10.439139 -0.82706952
-46.431171 10.938811 -0.83195621
-46.435478 11.093908 -0.8326543
-47.517933 11.510308 -0.85272461
-46.510513 11.4212 -0.83527219
-46.280346 11.518991 -0.83178169
-45.712997 11.683341 -0.82288092
-45.801903 11.859455 -0.82514977
-45.503284 11.934835 -0.82043761
-45.446239 12.072591 -0.82008857
-45.359833 12.27877 -0.819565
-45.311161 12.495062 -0.81973946
-12.308117 13.977821 -0.97397208
-12.521982 14.098969 -0.92997146
-12.321998 14.160744 -0.90732926
-12.164021 14.169272 -0.97658896
-18.886559 14.262466 -0.86767268
-18.519104 14.233674 -0.85627717
-12.629017 14.367998 -0.88687873
-12.327945 14.282168 -0.93049479
-12.055028 14.362546 -0.90642077
-11.764635 14.335032 -0.96978521
-12.372642 14.484383 -0.88316607
-12.116798 14.494186 -0.93192166
-12.05274 14.686272 -0.9935981
-11.665018 14.704758 -0.87017149
-12.330038 14.859781 -0.89523238
-11.980843 14.957567 -0.88850307
-27.763542 15.147665 -0.90438396
-12.441669 15.182045 -0.91008329
-11.952716 15.164944 -0.89523238
-30.107138 15.331688 -0.96620262
-29.880966 15.334903 -0.96047866
-29.726099 15.373597 -0.9570443
-27.759613 15.258894 -0.90581501
-29.684336 15.529615 -0.95804608
-29.65057 15.690476 -0.95933396
-29.757124 15.873408 -0.96448547
-29.812763 16.023603 -0.96791983
-16.486475 16.127842 -0.86623383
-16.707916 16.283869 -0.93953615
-16.557966 16.258167 -0.80897033
-22.320898 17.100386 -0.80392867
-30.457914 17.304657 -0.81236959
-30.360018 17.375427 -0.81120908
-29.990873 17.415247 -0.80424583
-25.305567 17.552874 -0.8806296
-25.176544 17.580772 -0.87805378
-31.933533 17.615854 -0.84579277
-31.487434 17.758886 -0.83836544
-29.556297 17.729017 -0.98566407
-28.769758 17.752542 -0.966775
-28.183142 17.635992 -0.95074791
-25.000313 17.692415 -0.87576419
-24.773647 17.649063 -0.86975408
-32.218845 17.905466 -0.85484487
-31.822218 17.816149 -0.84579277
-29.466232 17.801102 -0.98451924
-29.290611 17.820845 -0.9805125
-28.284035 17.888512 -0.95704436
-25.42374 17.872501 -0.88864315
-24.578833 17.868423 -0.86889547
-6.9535298 17.96007 -0.89291191
0.5496763 17.946907 -0.93890703
0.63108778 17.854319 -0.93419683
-28.349434 18.121077 -0.96219587
-27.982384 18.072788 -0.95260823
-25.197147 18.190567 -0.88864315
-24.699787 18.134884 -0.87619352
-11.625807 18.022415 -0.99454802
-11.456006 18.073793 -0.94867247
0.35349885 18.171606 -0.95042098
0.51498169 18.14797 -0.84162986
0.71268564 18.089682 -0.83923197
0.92268145 18.061615 -0.94571072
-30.201273 18.314344 -0.81910068
-28.068563 18.316437 -0.95847529
-27.304882 18.311356 -0.94015867
0.27928025 18.278942 -0.86923963
0.41330117 18.290209 -0.95670122
0.70065141 18.201508 -0.95251435
0.86394113 18.279804 -0.84835917
-42.218067 18.547314 -0.80420685
-28.0443 18.426481 -0.95962006
-2.8681839 18.527922 -0.92475611
-41.995815 18.923843 -0.80333424
-28.903278 19.121222 -0.99110186
-25.818415 19.651827 -0.92785215
-25.505716 19.796217 -0.92327297
-22.539602 19.764271 -0.8571614
-25.419771 19.857784 -0.92241442
-25.098549 19.86202 -0.91525948
-24.946043 19.933289 -0.913113
-24.098682 19.827757 -0.89236367
-22.567337 19.914352 -0.86059576
-20.998213 19.868395 -0.82653826
0.38162661 19.949739 -0.80330139
0.50941896 19.906839 -0.80168915
-25.518764 20.071754 -0.92842454
-24.832451 20.03491 -0.9123975
-24.116449 20.03368 -0.89651358
-23.956692 20.092546 -0.89408088
-23.482368 20.069921 -0.88330078
-23.298092 20.171907 -0.88120198
-22.728872 20.18429 -0.86918169
-22.516296 20.122366 -0.86345774
-22.276512 20.097605 -0.8578769
-22.033232 20.19433 -0.85458559
-21.705175 20.019463 -0.84428251
-21.073225 20.065243 -0.83197606
-20.981218 20.10368 -0.83083123
1.0921253 20.193657 -0.81418401
-25.068453 20.362959 -0.92355925
-23.965725 20.221558 -0.89665669
-22.340425 20.347145 -0.86403012
1.1011734 20.231451 -0.85697126
1.2261835 20.306084 -0.81902081
-22.169649 20.577192 -0.86488873
-21.76687 20.466564 -0.85429943
-15.047715 20.740196 -0.89342707
-14.917768 20.766178 -0.89150763
-14.729218 20.777958 -0.88801765
-14.546837 20.796379 -0.88487673
-22.32403 20.851448 -0.87347466
-14.408054 20.813848 -0.88260823
-14.264643 20.815506 -0.87981629
-14.086004 20.834343 -0.87684983
-13.91325 20.860065 -0.87423241
-13.692413 20.88224 -0.87062615
-13.089047 20.955 -0.92821205
-12.8961 20.963495 -0.91141242
-12.686698 20.970713 -0.85451418
-12.516313 20.985624 -0.85189676
-12.295549 20.988453 -0.84805775
-32.002045 21.095686 -0.88896441
-21.849829 21.060776 -0.8677507
-21.718981 21.066677 -0.86517495
-15.730908 21.118605 -0.91820574
-15.575339 21.0474 -0.91297084
-13.217331 21.007292 -0.9995923
-12.720408 21.014545 -0.9893142
-12.505718 21.036463 -0.98561954
-12.301282 21.034229 -0.91552174
-12.083003 21.045824 -0.92488307
-11.878021 21.055538 -0.89520729
-11.683332 21.064306 -0.90500641
-11.499113 21.093164 -0.91557825
-11.297688 21.103146 -0.88636053
-11.108681 21.116394 -0.89644504
-10.971568 21.152349 -0.91671628
-31.956898 21.218281 -0.88966072
-10.945826 21.294006 -0.89964867
-32.005417 21.541452 -0.89476711
-10.890277 21.470995 -0.89130652
-10.698435 21.515648 -0.93511522
-9.6637192 21.476341 -0.94840354
-16.461092 21.669832 -0.94891727
-16.313759 21.687206 -0.94629985
-10.700913 21.744389 -0.84491676
-9.7450981 21.751858 -0.830957
-9.4452124 21.726036 -0.95404637
-9.291543 21.745035 -0.95229977
-10.826877 21.827066 -0.84945375
-9.4407663 21.907461 -0.83165503
-8.6951685 21.864985 -0.94759738
-8.5794315 21.975027 -0.95001572
-10.281817 22.101421 -0.94860798
-8.864562 22.078714 -0.91518426
-8.6777506 22.022326 -0.95324022
-8.5211763 22.029825 -0.95122498
-10.894608 22.300486 -0.9995923
-10.588592 22.397738 -0.86376256
-10.293352 22.315018 -0.85678262
-10.091037 22.242722 -0.85154772
-2.263474 22.377138 -0.90567899
-11.004622 22.530441 -0.87423235
-10.518178 22.430891 -0.86376256
-10.27705 22.462715 -0.92787534
-9.9101582 22.504147 -0.99032187
-8.7233677 22.556847 -0.84317183
-11.00387 22.719732 -0.88016528
-10.860902 22.788424 -0.88016528
-9.6658459 22.724255 -0.86097062
-8.3436317 22.620264 -0.97097498
-7.7299042 22.710653 -0.96613818
1.7302368 22.725307 -0.9177708
1.8031937 22.739681 -0.91857696
-11.00598 22.907345 -0.88609821
-8.3514318 22.862207 -0.98024535
-7.8955073 22.960251 -0.97782701
-10.069485 23.056316 -0.87719882
-9.0845928 23.05954 -0.86411154
-8.80474 23.199909 -0.8651585
-8.7177505 23.190037 -0.86376256
-8.6483421 23.226675 -0.86411154
-8.4862442 23.236656 -0.86248285
-8.3911505 23.209234 -0.99394947
-8.0058794 23.286852 -0.85852766
-7.9198089 23.274042 -0.8571316
-7.434145 23.276371 -0.8518967
-7.2582455 23.357967 -0.98508209
-7.1134896 23.365896 -0.93964815
-6.8987141 23.371981 -0.91554832
-6.6833491 23.362642 -0.89100122
-6.5028787 23.3806 -0.84608012
-6.3497324 23.398577 -0.84526581
-5.5098996 23.335871 -0.90084314
-6.5139003 23.424261 -0.9791705
-6.2769165 23.432419 -0.94419634
-6.1016836 23.427261 -0.89644802
-5.8899245 23.45752 -0.90869051
-5.6958928 23.463449 -0.90716183
-5.4189787 23.44437 -0.90405285
-5.2939053 23.51128 -0.91845769
-5.1057663 23.506823 -0.89073819
-4.8922811 23.52751 -0.90284866
-4.7025709 23.544983 -0.90205842
-4.5107179 23.549372 -0.90083408
-4.2989721 23.570156 -0.88718241
-4.0862083 23.563335 -0.83374894
-3.9009361 23.581161 -0.8332836
-3.7134957 23.584473 -0.832353
-4.2122211 23.607265 -0.96573514
-4.0983782 23.612055 -0.96513057
-3.9098108 23.625391 -0.96439165
-3.7171102 23.624493 -0.96311522
-3.3010883 23.648264 -0.89709181
-3.0908623 23.665092 -0.90954512
-2.9111855 23.680796 -0.88346541
-2.7014644 23.692392 -0.89587855
-2.5516555 23.700699 -0.89555168
-2.2743123 23.731379 -0.87415451
-2.0994427 23.734915 -0.89517564
0.15465485 23.942081 -0.89959455
0.28800327 23.908293 -0.89829814
0.92783087 23.961021 -0.88790208
1.0695915 23.986254 -0.96694434
2.7014439 23.960629 -0.90586543
1.5482841 24.01343 -0.88232708
1.6917938 24.032448 -0.91814613
1.9820354 24.055931 -0.90685952
2.1002488 24.065929 -0.90759814
2.2909882 24.06353 -0.90815312
2.5065618 24.076702 -0.89634573
2.6076531 24.109283 -0.97661781
2.9124033 24.106972 -0.91227132
3.1090004 24.135357 -0.91427934
3.3021717 24.142418 -0.91549015
3.4977472 24.152775 -0.91687095
3.6947126 24.168024 -0.91854763
3.8874011 24.169037 -0.85346717
10.50701 24.132002 -0.9177404
10.713877 24.088339 -0.91925275
10.924777 24.152561 -0.92431313
11.073879 24.167072 -0.92693061
3.9003525 24.207443 -0.98750049
4.0176573 24.208536 -0.98830652
10.326298 24.235291 -0.91855478
10.301157 24.495573 -0.92658162
10.297249 24.703064 -0.93321252
5.9932337 25.180439 -0.90250093
5.8847594 25.252159 -0.90407145
6.1412864 25.262997 -0.90651441
-42.473896 26.003988 -0.86860627
7.3115759 26.564999 -0.96078312
7.2543235 26.684271 -0.96427304
-42.467403 27.312103 -0.88064843
16.490974 31.234274 -0.81910068
16.607809 31.217607 -0.82002902
17.533258 34.511024 -0.89778447
17.702507 34.441322 -0.89813262
17.899244 34.424076 -0.89987344
17.298904 34.874767 -0.90289074
29.721216 35.374065 -0.80577755
29.86447 35.318703 -0.80665016
30.052711 35.30323 -0.80856997
29.547647 35.499599 -0.80551577
39.712212 35.762108 -0.93213302
39.831829 35.643822 -0.93230754
6.1090426 35.954765 -0.84579277
6.3417444 35.955059 -0.84672123
6.50668 35.864658 -0.84532857
6.6820397 35.86795 -0.84614092
6.9176555 35.879253 -0.84741753
7.0963488 35.89534 -0.84857804
8.0570488 35.948158 -0.85438067
38.707611 35.861153 -0.92035264
39.471966 35.997433 -0.93178397
39.614487 35.900112 -0.93248206
8.1876717 36.00066 -0.85623753
10.171807 36.156246 -0.87109232
10.667761 36.169407 -0.87457389
38.600307 36.101261 -0.92183608
44.151814 36.130627 -0.9951362
11.177436 36.214001 -0.87898391
11.306405 36.205364 -0.87968016
11.499603 36.223091 -0.88142103
11.690104 36.2304 -0.88292974
11.893404 36.274605 -0.8853668
12.081591 36.270378 -0.88664341
12.273214 36.27454 -0.88815206
12.474689 36.285095 -0.88989288
12.668621 36.29192 -0.89151752
12.866197 36.307259 -0.89337438
13.072685 36.344948 -0.89581156
13.272917 36.362831 -0.89778447
13.470194 36.370132 -0.89952523
14.339046 36.396687 -0.90730077
38.515827 36.24976 -0.92253423
39.46917 36.222672 -0.93440181
44.044407 36.261478 -0.9951362
14.077637 36.402138 -0.90521187
14.217366 36.422928 -0.90683657
14.486552 36.435074 -0.90938973
14.684303 36.431236 -0.9110145
43.977798 36.452007 -0.99635786
29.462093 36.673889 -0.82043761
29.421576 36.860043 -0.82253188
29.40476 37.090618 -0.82549882
39.171154 37.099468 -0.94103372
29.387072 37.308491 -0.82829118
39.083363 37.249935 -0.94173181
39.016659 37.420982 -0.94295353
29.522331 37.723484 -0.83544666
38.94989 37.605728 -0.94434971
28.948977 37.964264 -0.8326543
29.092445 37.904861 -0.83335239
29.2236 37.829109 -0.83370149
38.848667 37.982525 -0.94766563
28.799387 38.015163 -0.83178169
28.925976 40.528152 -0.86843169
29.117315 40.526409 -0.87035149
28.792713 40.610683 -0.86825722
28.327126 45.516571 -0.9350999
28.247036 45.70742 -0.93719417
28.682323 45.766266 -0.94208091
28.156975 46.208462 -0.94382608
38.09766 67.817032 -0.80060703
37.991585 68.12851 -0.80287242
37.893612 68.457474 -0.80534375
37.753044 68.740517 -0.80719721
37.611149 68.966362 -0.80853587
47.306091 69.539986 -0.86568534
47.620377 69.531281 -0.86743581
47.115356 69.729698 -0.86620015
47.091122 70.167961 -0.8698042
47.030075 70.581688 -0.87299633
46.994392 71.037483 -0.87670332
47.012619 71.55246 -0.88123411
46.804005 71.724915 -0.88154304
46.931526 72.917244 -0.89256102
46.912281 73.392899 -0.89657694
46.834206 74.295219 -0.90399092
46.765034 74.704742 -0.90718299
30.104603 74.826431 -0.83015996
30.352785 74.801643 -0.83088076
39.987827 -52.539703 -0.67951196
-45.318012 -51.574406 -0.70659357
-45.590271 -51.21347 -0.7056669
-45.389408 -51.311508 -0.7050491
35.34079 -51.277351 -0.64089751
-45.724255 -51.040195 -0.70525497
35.484612 -51.141422 -0.64058858
35.668003 -51.062485 -0.64100051
-45.681339 -50.688908 -0.70226878
-46.353214 -50.469681 -0.70525497
-46.046112 -50.452583 -0.70298958
-46.504745 -50.316471 -0.70515198
-46.915646 -50.125481 -0.70659357
-46.689827 -50.199417 -0.7055639
-47.052311 -49.956013 -0.7062847
-47.303146 -49.594276 -0.70535797
-46.933849 -49.517662 -0.70216578
-47.590305 -47.764347 -0.69392806
-47.207832 -47.679142 -0.69053
-47.669331 -47.543987 -0.69289839
-47.753368 -47.033047 -0.6898092
-47.463318 -47.042076 -0.6877498
-47.977894 -46.38776 -0.68682301
-47.958363 -46.06218 -0.68435168
44.45734 -43.909927 -0.64305991
-47.099525 -43.03014 -0.65654922
-47.887192 -42.121536 -0.65634328
42.429611 -40.341309 -0.60248893
44.200237 -39.707108 -0.61144751
47.187073 -37.085735 -0.61762583
10.286296 -30.04958 -0.73647106
10.213981 -29.535263 -0.72463369
10.230872 -29.285961 -0.71929526
33.601131 -28.272003 -0.76581156
10.218897 -28.112177 -0.69353151
22.544809 -27.8792 -0.6251452
33.306206 -27.845694 -0.75708532
10.183125 -27.742081 -0.68517572
22.537594 -27.691929 -0.6225273
33.278149 -27.645102 -0.75446755
22.567448 -27.551382 -0.6209566
33.23373 -27.432234 -0.75150061
33.219238 -27.245277 -0.74923182
33.242653 -27.09026 -0.74783558
34.063187 -26.362566 -0.75115156
-28.025286 -26.007767 -0.66668195
-27.865913 -26.105316 -0.66580927
9.9749527 -26.07572 -0.79820472
10.021267 -26.030006 -0.6466462
34.053772 -26.104351 -0.74827188
34.341991 -26.064533 -0.75184965
-28.136246 -25.946714 -0.66737998
10.097629 -25.892773 -0.73444533
10.309846 -25.865402 -0.69572419
10.523888 -25.839569 -0.72233647
10.696001 -25.851398 -0.70910615
10.932169 -25.834503 -0.65035987
11.116046 -25.815796 -0.65163648
11.301596 -25.811523 -0.65326118
11.449444 -25.817421 -0.6547699
12.310949 -25.872532 -0.6642862
12.536276 -25.92522 -0.66765177
12.714344 -25.87735 -0.66846412
12.923565 -25.890877 -0.67090124
13.108622 -25.853731 -0.6720618
10.419714 -25.771866 -0.79477036
11.534577 -25.790449 -0.655002
11.680735 -25.790409 -0.6563946
11.873938 -25.784601 -0.65813541
15.472854 -25.552265 -0.69260311
15.629621 -25.538803 -0.69422787
21.491812 -24.735033 -0.75983638
-27.211189 -24.467789 -0.63805991
-27.228291 -24.328875 -0.63666379
21.050852 -23.696426 -0.73496234
-17.478142 -22.488926 -0.66034043
-15.839857 -22.409641 -0.63620144
-15.734911 -22.410198 -0.63480878
-17.509811 -22.312019 -0.65755516
-15.911892 -22.347204 -0.7348364
-15.6878 -22.374924 -0.73205405
-15.505862 -22.363718 -0.72891879
-15.398334 -22.376307 -0.62970245
-15.07076 -22.330322 -0.72160095
-14.887957 -22.321297 -0.69445848
-14.707393 -22.317833 -0.6677323
-14.521197 -22.296623 -0.68875325
-14.306549 -22.271763 -0.68519664
-18.359818 -22.088041 -0.66591096
-17.992903 -22.066381 -0.66010833
-17.644375 -22.052324 -0.6547699
-17.506035 -22.092146 -0.65349329
-15.881295 -22.092047 -0.67979288
-14.107571 -22.191341 -0.68072909
-12.868893 -22.141262 -0.7320931
-12.788149 -22.153378 -0.73123449
-11.886885 -22.089382 -0.71706772
-11.708069 -22.088562 -0.71463501
-11.525111 -22.077507 -0.71191621
-11.294418 -22.056067 -0.70833874
-11.118916 -22.044439 -0.70576298
-16.612747 -21.913324 -0.78618443
-16.502346 -21.924742 -0.68556929
-16.29775 -21.892878 -0.70651865
-16.088388 -21.901604 -0.70343977
-15.905833 -21.904205 -0.72515917
-12.857576 -21.962709 -0.72751397
-10.96907 -21.918365 -0.70061141
-10.05504 -21.946257 -0.69002205
-9.893856 -21.865852 -0.68601537
-8.677639 -21.866348 -0.67242098
-8.518487 -21.853756 -0.67041755
-8.1166735 -21.830276 -0.66569531
-7.918983 -21.817665 -0.66340572
-7.6867614 -21.808723 -0.66092539
-13.684275 -21.699974 -0.73338103
-13.492235 -21.696396 -0.73037589
-13.3138 -21.712597 -0.72808635
-12.976755 -21.694729 -0.72264862
-10.032096 -21.725758 -0.68401194
-6.456852 -21.646582 -0.69284326
-6.3254099 -21.650761 -0.78628564
-5.2667065 -21.636658 -0.70630258
-5.1203055 -21.625479 -0.70487863
17.873678 -21.646931 -0.65082407
-10.670684 -21.575539 -0.68801868
-10.488945 -21.547802 -0.68501365
-10.31663 -21.536659 -0.68258095
-9.530694 -21.420744 -0.67013133
-8.9290838 -21.413355 -0.66311955
-8.7867842 -21.450535 -0.66254711
-7.424408 -21.494514 -0.64995444
-6.4809098 -21.552576 -0.78454065
-6.3201113 -21.521961 -0.64108235
-5.2972894 -21.477245 -0.6322102
-4.9442711 -21.474356 -0.76813793
-3.864857 -21.511692 -0.69311535
-3.7691338 -21.539 -0.762205
-3.4747365 -21.540619 -0.67825806
-3.2774098 -21.517115 -0.69026452
-3.084151 -21.521242 -0.67586243
-2.9175017 -21.495115 -0.70157957
-2.7263794 -21.489752 -0.68697232
-2.522433 -21.520334 -0.61923593
-2.3504386 -21.513031 -0.6184727
-2.1084681 -21.47109 -0.61656475
-1.9070635 -21.47319 -0.61608773
-1.7473415 -21.426908 -0.70426637
-1.4306295 -21.453485 -0.61446595
-1.2940125 -21.432047 -0.61360741
-1.0905972 -21.41667 -0.61284423
-0.9236449 -21.411224 -0.61246258
-0.68938965 -21.400068 -0.61189014
17.91642 -21.465931 -0.72376966
-9.3122826 -21.380325 -0.66655391
-9.1126852 -21.379307 -0.66426432
-8.9156151 -21.380939 -0.66211784
-7.2675018 -21.249949 -0.71239972
-7.1298051 -21.240059 -0.69662434
-6.8919964 -21.229292 -0.70800108
-6.6920242 -21.242746 -0.72042722
-6.514708 -21.270514 -0.68230551
-6.2078738 -21.388119 -0.63650316
-5.2689757 -21.345533 -0.76639289
-4.8920317 -21.265562 -0.62362427
-2.2323878 -21.364828 -0.61389357
-1.4301889 -21.388794 -0.74719822
-1.2947696 -21.380661 -0.74661654
-1.0923524 -21.37528 -0.74603486
-0.87513936 -21.367252 -0.71181637
-0.69045353 -21.361195 -0.691203
-0.48836401 -21.351578 -0.67730123
-0.28816417 -21.341894 -0.67686731
-0.087570369 -21.327002 -0.67632753
0.11151874 -21.315229 -0.67600411
0.314872 -21.311529 -0.67594606
0.4675239 -21.289682 -0.69760972
0.7589941 -21.29281 -0.65343529
0.91450995 -21.274216 -0.67534226
1.1106321 -21.253199 -0.67496639
1.3453192 -21.251364 -0.67532122
1.5121502 -21.235094 -0.6751886
1.7102255 -21.218386 -0.67514092
1.9253237 -21.218153 -0.66234183
17.961012 -21.339848 -0.6466462
18.058603 -21.294039 -0.7228142
18.258986 -21.283434 -0.65012777
-7.0272317 -21.191246 -0.77825874
-6.5120177 -21.179996 -0.7028718
-6.0675173 -21.145267 -0.69775891
-5.9208088 -21.131388 -0.69602317
-5.7091999 -21.14123 -0.69461435
-5.4991746 -21.143478 -0.69291586
-5.3113623 -21.097874 -0.69004929
-4.6311975 -21.03739 -0.61561078
-4.4984717 -21.036478 -0.68230253
-4.2926245 -21.042044 -0.68115896
-4.1034327 -21.056221 -0.69383162
-3.8813863 -21.033764 -0.67829132
-2.5338359 -21.014513 -0.73777533
-2.3983388 -21.000231 -0.73672831
-1.8116528 -21.10911 -0.73847336
1.2382133 -21.122738 -0.67108083
1.841302 -21.196831 -0.74161428
2.0429053 -21.198431 -0.74231231
5.0764594 -21.029646 -0.68616134
5.2848415 -21.01668 -0.6193313
-3.9433651 -20.979219 -0.74405724
-2.4643011 -20.992592 -0.73672831
-2.2966318 -20.986439 -0.73585594
-2.1297705 -20.972178 -0.73475075
-1.9316945 -20.961235 -0.73370367
5.2640872 -20.946217 -0.71899706
5.4860706 -20.986794 -0.68800879
5.6260204 -20.982552 -0.68900925
-15.333339 -20.029177 -0.72107446
-13.585141 -19.918312 -0.68916351
-9.1390228 -19.611567 -0.75417811
-9.1815042 -19.555635 -0.68529236
-7.3682032 -19.341036 -0.7213726
-4.3191404 -19.300186 -0.68926507
8.8756828 -19.292971 -0.74021828
-1.4450645 -19.144516 -0.77287024
-1.3629431 -19.1014 -0.7018891
0.5394206 -19.078413 -0.71652049
8.9450302 -19.056843 -0.73376191
14.768946 -19.088682 -0.689879
0.57506555 -18.969339 -0.66134542
14.853087 -18.95348 -0.6883049
15.116857 -18.859253 -0.69088066
-28.481293 -18.451321 -0.78695405
6.9153271 -18.482204 -0.79443401
-28.681553 -18.389809 -0.79008746
-11.090162 -18.344376 -0.61260569
-10.851286 -18.271963 -0.60731101
-10.773519 -18.271523 -0.60616624
7.2436438 -18.272205 -0.73817039
-21.207439 -18.040112 -0.64548564
-21.115417 -18.066929 -0.74435902
-11.039458 -18.188633 -0.74161428
6.4688048 -18.065382 -0.73795968
-21.30253 -17.942612 -0.73601109
-14.31407 -17.805429 -0.79640651
6.5479803 -17.670067 -0.75856155
-14.710018 -17.561199 -0.72659731
-14.300769 -17.455841 -0.78663462
6.5166578 -17.52589 -0.6515736
-14.330102 -17.37999 -0.78523868
-2.8602285 -16.895199 -0.68963808
-2.7926245 -16.912468 -0.79452455
-2.8207691 -16.71744 -0.7341975
11.863462 -16.696564 -0.71386921
11.936672 -16.523169 -0.71043748
12.024608 -16.426352 -0.70950675
-6.6504407 -16.322447 -0.70938814
-6.5322819 -16.223227 -0.6093452
12.107818 -16.377512 -0.70985579
12.202792 -16.344332 -0.71090269
-33.635838 -16.131079 -0.65045118
-6.5318422 -16.176466 -0.702133
-33.523842 -15.947987 -0.64730978
-13.052502 -15.530776 -0.70706379
-13.224372 -15.345136 -0.70601678
-13.12863 -15.374565 -0.70462084
-42.392406 -15.014352 -0.78431112
-38.167141 -13.255441 -0.7045536
8.1057634 -13.215418 -0.71841359
8.0973034 -13.081995 -0.66597342
8.1464825 -12.938992 -0.69618714
3.4453652 -12.480572 -0.69863528
3.5380177 -12.310695 -0.70385897
3.7101028 -12.255968 -0.70366812
3.8900602 -12.278333 -0.68329281
5.8742146 -12.085204 -0.77484703
4.9921961 -10.038913 -0.79492337
5.0207701 -10.032827 -0.718032
5.0665565 -9.8914328 -0.71188104
5.1513228 -9.7525959 -0.7072311
5.2850847 -9.6591654 -0.70127505
5.4434986 -9.6449356 -0.68337113
5.416707 -9.5983076 -0.63512051
-28.686394 -9.2856102 -0.69910204
-44.740391 -8.8775015 -0.79548067
-44.833061 -8.6115904 -0.79617876
-44.746906 -8.74088 -0.79513162
-44.889366 -8.476263 -0.79670233
-24.438915 -8.4981937 -0.73967731
-45.023907 -8.3552837 -0.79862207
-24.369989 -8.3456402 -0.73638606
-37.477646 -8.0561848 -0.66842717
-24.460258 -8.0771408 -0.73638606
-37.453865 -7.9280505 -0.66755456
-37.620468 -7.7166915 -0.66964883
-29.524849 -7.4965253 -0.70629734
-29.521587 -7.303946 -0.70513678
-31.185856 -7.0432777 -0.74134529
-29.557182 -7.115942 -0.70490468
-31.217587 -6.9474463 -0.74157739
-29.640295 -6.9829001 -0.70606524
-22.045235 -6.9020538 -0.66025758
-31.821028 -6.6632409 -0.75387901
-31.799938 -6.7631726 -0.75387901
-22.070038 -6.7199235 -0.65939891
-31.988676 -6.5935173 -0.75736058
-22.316547 -6.4515853 -0.6639781
-22.146147 -6.5534782 -0.66011447
-14.437009 -6.276782 -0.69110763
-14.426552 -6.0920682 -0.63011932
-14.388231 -6.0792131 -0.70476782
-17.575838 -5.9582558 -0.64668763
-14.630387 -5.8048306 -0.68144166
-14.492471 -5.8956094 -0.6826008
-14.650118 -5.7737398 -0.63361251
-6.8410821 -5.6728687 -0.67610997
-6.8825698 -5.5001869 -0.67223823
-7.3123221 -5.2250929 -0.63664848
-7.0311823 -5.228693 -0.66100121
-6.9648414 -5.3241596 -0.66927564
-7.2176819 -5.1854358 -0.67613268
-7.1117883 -5.1831884 -0.66959906
-7.8464937 -4.9786873 -0.70613778
-7.6961274 -4.8935561 -0.67067295
-2.7275295 -4.8787055 -0.69931966
-2.7594602 -4.7587175 -0.68818855
0.50902635 -4.5329061 -0.62911212
0.69951618 -4.457324 -0.6222226
0.88987595 -4.4706054 -0.62866926
1.0118318 -4.5590672 -0.64417064
2.8263369 -4.4176888 -0.72408915
2.8890221 -4.385819 -0.72512263
3.2128358 -4.2975264 -0.60119218
3.0527945 -4.1849504 -0.71513283
2.9309022 -3.9918616 -0.68344098
-5.80966 -3.215565 -0.62393737
-5.6957345 -3.236903 -0.71775168
-5.8912377 -3.100497 -0.67781466
-6.2522111 -2.8414614 -0.70812428
-6.1133676 -2.8545001 -0.75709844
-5.9083171 -2.9521296 -0.66447431
-5.8558679 -2.7390561 -0.66670644
-5.6810422 -2.7242925 -0.66296399
19.185034 3.7791746 -0.78717887
-35.24255 3.9586859 -0.61833876
19.14683 3.9108641 -0.76029062
19.215004 3.9044099 -0.68333215
34.325962 3.9660463 -0.60245711
-35.158188 4.1233277 -0.61720431
19.172836 4.0245686 -0.73568565
33.585911 4.1457562 -0.78474897
-35.212849 4.2980142 -0.61851329
33.556427 4.2997742 -0.78451693
33.625408 4.4667883 -0.78660589
-38.549164 5.3136182 -0.67854953
33.580601 5.3287625 -0.78846264
-38.349945 5.4738874 -0.67549539
33.466286 5.4724121 -0.78637373
-38.279694 5.7128963 -0.67488456
-37.165359 5.7259312 -0.65568691
33.499313 5.6400352 -0.7877664
-30.703569 6.1398711 -0.7260263
-30.723858 6.291851 -0.72718686
-30.772455 6.4025888 -0.72881156
-23.428495 6.5614977 -0.69545984
-23.204248 6.6561913 -0.69002205
-23.086836 6.7382116 -0.6874463
-23.102684 6.896349 -0.68916345
-23.247896 7.1411939 -0.69517362
-23.155447 7.0332503 -0.69173926
-23.327793 7.2885242 -0.69860804
-18.824129 7.3750458 -0.70462078
-18.791313 7.2941561 -0.70252687
-15.662366 7.2809067 -0.69912332
-15.571447 7.3488808 -0.74553472
-15.509594 7.4978204 -0.7211141
-36.100227 7.7317438 -0.64373201
-15.514088 7.7053819 -0.65038133
-8.0921974 7.9961901 -0.72517329
-7.9077997 7.9423442 -0.71866244
-7.7849102 7.9698448 -0.64204907
-8.162508 8.0060501 -0.6938678
-7.8310838 8.0142136 -0.74092817
-7.7201042 8.0995054 -0.70983499
-7.6582828 8.272934 -0.71356177
-2.8105972 8.3808432 -0.68844104
-7.6866226 8.4808826 -0.70164877
-2.8056028 8.4464502 -0.72224814
-2.772172 8.4508429 -0.67662472
-37.6394 8.6193733 -0.6733138
-34.493454 8.7019043 -0.62025857
-7.717854 8.6009808 -0.73666376
-0.63592774 8.7697554 -0.66912889
-0.49769309 8.7025948 -0.6651234
-0.29665726 8.7184381 -0.66151977
-0.15379514 8.7820568 -0.6782521
-3.8124943 8.9882593 -0.71828663
-3.795507 8.9889126 -0.792117
-0.7154538 8.8367033 -0.67448324
-0.06017429 8.8577003 -0.66623902
0.020648446 8.9529934 -0.69051909
-3.763962 9.0859728 -0.73067546
1.8889465 9.1769953 -0.71741873
-43.471138 13.779002 -0.79530615
-43.237198 13.8545 -0.79181564
-43.107845 13.962553 -0.79024494
-43.054268 14.094796 -0.79007047
-18.939865 14.130491 -0.67542607
-12.458185 14.045276 -0.75574017
-12.361129 14.024393 -0.75251567
-43.050205 14.393559 -0.79164118
-42.962307 14.214293 -0.7891978
-18.920986 14.2556 -0.67714316
-12.735031 14.365903 -0.66902333
-12.480951 14.273237 -0.7016505
-12.318007 14.29237 -0.65750647
-12.087296 14.373356 -0.68838149
-11.812078 14.373647 -0.74888813
-43.023716 14.535136 -0.79199016
-42.552017 14.524928 -0.78413665
-12.330811 14.440784 -0.76440597
-12.055496 14.483398 -0.75856161
-11.689585 14.487089 -0.72924334
-11.516654 14.573738 -0.64726931
-42.458908 14.64225 -0.78326398
-42.214413 14.70651 -0.77959895
-12.640305 14.616286 -0.7779085
-12.247462 14.713741 -0.77065337
-12.180914 14.689623 -0.66500992
-11.681876 14.684509 -0.75533706
-11.427061 14.699028 -0.64878166
-11.380811 14.785378 -0.6501776
-42.088043 14.885221 -0.77855182
-12.671538 14.839758 -0.78556669
-12.262466 14.978529 -0.67460728
-12.0722 14.888649 -0.66797632
-11.322165 14.80518 -0.64947957
-42.017471 15.083457 -0.77855188
-29.976074 15.147392 -0.77883029
-27.774496 15.095006 -0.73298949
-12.156985 15.089973 -0.67530525
-41.992836 15.298406 -0.77942443
-29.865654 15.331163 -0.7784822
-29.544666 15.342785 -0.77198321
-41.995369 15.523832 -0.78082061
-29.458714 15.474867 -0.77163506
-42.058807 15.697635 -0.78291494
-29.592989 15.723737 -0.77708954
-42.045094 15.918646 -0.78404939
-29.578699 15.835505 -0.778018
-42.011669 16.132734 -0.78483468
-16.62429 16.226076 -0.6639781
-16.556133 16.267105 -0.66340572
-42.040863 16.608723 -0.78832519
-41.914181 16.711098 -0.78692901
-42.121208 16.947163 -0.79181564
-42.197464 17.132042 -0.79425901
-22.383383 17.090992 -0.65291303
-42.050903 17.226639 -0.79251379
-41.894932 17.316656 -0.79059398
-25.147976 17.331268 -0.7081542
-41.932606 17.486664 -0.79233921
-25.945463 17.581865 -0.7267226
-25.700148 17.533716 -0.72138423
-24.770065 17.592455 -0.70444047
-24.576418 17.571344 -0.70049465
-41.905117 17.629936 -0.79286283
-31.338348 17.66468 -0.62723947
-29.539209 17.786234 -0.79960382
-28.735415 17.79809 -0.78382063
-25.42709 17.700901 -0.7183668
-25.259823 17.695967 -0.71511734
-24.955923 17.606752 -0.7081542
-24.610353 17.712706 -0.70304787
-24.497915 17.748877 -0.70142311
-11.428892 17.792265 -0.73707736
-42.023319 17.991236 -0.79722595
-41.996792 17.823986 -0.79565519
-32.538628 17.872438 -0.64730978
-32.261692 17.918774 -0.64347023
-29.262701 17.990652 -0.79658639
-28.662395 17.877693 -0.78335643
-11.611542 17.962637 -0.67841691
-11.422094 17.802029 -0.60444903
-6.8572898 17.891918 -0.71973264
-42.040024 18.154875 -0.79862207
-30.323828 18.176497 -0.61641902
-30.129604 18.189018 -0.6136266
-28.721533 18.103222 -0.78730214
-28.213512 18.101065 -0.77732164
-28.010588 18.102287 -0.77337587
-24.748829 18.109058 -0.71105552
-24.538603 18.133442 -0.70745784
-11.541651 18.167656 -0.68261027
-6.8604198 18.075787 -0.77831155
-42.046951 18.314793 -0.79984373
-30.157757 18.335508 -0.61537182
-28.241697 18.370642 -0.78126746
-27.368635 18.296291 -0.76339531
0.23618773 18.35317 -0.73881155
0.64359736 18.3634 -0.73961771
-41.903625 18.566473 -0.79932022
-28.145241 18.426985 -0.78010696
-2.8333578 18.581467 -0.70585895
-2.7744906 18.572079 -0.65436554
-41.854214 18.702108 -0.79949468
-29.465748 18.691706 -0.60839093
-29.314186 18.724989 -0.60647112
-2.739085 18.621866 -0.72379351
-21.904461 19.023607 -0.67264205
-25.743679 19.920877 -0.75480741
-25.330938 19.921656 -0.74726403
-25.115509 19.944403 -0.74366635
-24.990246 19.97328 -0.74180949
0.31832406 19.944923 -0.695198
0.50536579 19.904337 -0.69391823
0.63347882 19.997396 -0.69729191
-25.791393 20.087654 -0.75805688
-24.977623 20.084925 -0.74320215
-22.674971 20.070667 -0.70211947
-22.202776 20.163038 -0.69538838
-22.095043 20.192225 -0.69399571
1.1157949 20.181456 -0.70444632
-24.800898 20.207912 -0.74180949
-24.768211 20.311087 -0.74273795
-24.483517 20.271366 -0.73705137
-24.284201 20.299978 -0.73391789
0.89494395 20.217489 -0.70531881
1.0214539 20.201485 -0.70496976
-23.410387 20.460663 -0.72091997
-25.516975 20.658276 -0.76130635
-23.008255 20.762911 -0.7185989
-21.623997 20.652483 -0.69329941
-15.102744 20.768681 -0.73409647
-14.963796 20.782896 -0.7320931
-14.775027 20.795015 -0.72923112
-32.168484 20.977024 -0.66964883
-22.481743 20.937799 -0.71233207
-14.880989 20.805408 -0.73123449
-14.692337 20.816826 -0.72837251
-14.500361 20.821102 -0.7253198
-14.275183 20.845074 -0.72221935
-14.099165 20.868092 -0.7199297
-13.917 20.887997 -0.71749705
-13.733326 20.895672 -0.71477818
-13.599276 20.905729 -0.71291786
-13.126316 20.970367 -0.70719397
-12.900138 20.973406 -0.70385498
-12.682644 20.979259 -0.70075452
-12.508543 20.996309 -0.69860804
-22.951368 21.107409 -0.72300893
-12.297853 21.016176 -0.69603223
-12.082574 21.025526 -0.69317025
-11.915766 21.040134 -0.69116688
-11.71293 21.066023 -0.68897265
-11.504819 21.079918 -0.68644464
-11.291972 21.090761 -0.68382114
-11.089548 21.109543 -0.68157923
-10.969213 21.121681 -0.68029135
-32.164883 21.255802 -0.67226672
-15.650052 21.309679 -0.75584751
-10.948586 21.244896 -0.68315333
-32.427181 21.583904 -0.67924762
-17.095201 21.595005 -0.63852251
-10.961653 21.518957 -0.69030827
-27.147028 21.74823 -0.60647112
-26.68527 21.794439 -0.60071182
-16.897745 21.666193 -0.73602265
-16.780552 21.613028 -0.63434458
-10.914081 21.766994 -0.69603223
-16.83498 21.899395 -0.64037931
-16.507395 21.892618 -0.78389484
-16.364122 21.975103 -0.78332245
-10.871568 21.94458 -0.70003897
-23.495501 22.020048 -0.74668366
-23.318871 22.061737 -0.74436265
-22.801771 22.052794 -0.7355426
-16.883865 22.067272 -0.71926153
-16.2992 22.048166 -0.78389484
-16.829473 22.255646 -0.6468783
-16.747458 22.292423 -0.64641404
-10.98332 22.346447 -0.7117731
-2.3290267 22.387489 -0.71398771
-16.758577 22.52747 -0.65094012
-16.536617 22.44927 -0.64641404
-10.987532 22.533587 -0.71663845
-2.265686 22.46431 -0.71614802
-10.995021 22.729973 -0.72179002
1.7293448 22.677353 -0.7213099
-11.005714 22.935637 -0.72722775
-10.882724 23.049437 -0.72865868
-10.669896 23.066208 -0.72651225
-10.49585 23.074562 -0.72465193
-10.330273 23.099899 -0.72336411
-10.119803 23.114639 -0.721313
-9.9071198 23.121487 -0.71907115
-9.7883091 23.144938 -0.71835566
-9.2893963 23.180933 -0.7138719
-9.082592 23.194826 -0.71205926
-8.9623861 23.209429 -0.71120071
-6.8827643 23.36384 -0.69622302
-6.6875381 23.377203 -0.69503051
-6.4926167 23.388815 -0.69383812
-6.2540355 23.39864 -0.69231164
-5.4937263 23.332039 -0.6851567
-6.339426 23.406719 -0.69317025
-6.1027241 23.421259 -0.69183469
-5.9157257 23.440033 -0.69102377
-5.7190623 23.45273 -0.69002205
-5.408577 23.475069 -0.68859112
