# .PCD v0.7 - Point Cloud Data file format
VERSION 0.7
FIELDS x y z
SIZE 4 4 4
TYPE F F F
COUNT 1 1 1
WIDTH 1638
HEIGHT 1
VIEWPOINT 0 0 0 1 0 0 0
POINTS 1638
DATA ascii
1.0510682 2.7893546 3.5361505
1.0728186 2.7908063 3.5368004
1.0901562 2.7916749 3.5356622
1.1089096 2.7899096 3.5366282
1.1298223 2.7898333 3.5360501
1.1470166 2.7905056 3.5364225
1.1689761 2.7892666 3.5362523
1.190695 2.789495 3.5363052
1.2105525 2.7914381 3.5356619
1.2311951 2.7895954 3.5357478
1.2491132 2.7908611 3.535804
1.2701851 2.7906556 3.5357854
1.2900437 2.7888627 3.5349376
1.3099917 2.7907333 3.5349834
1.3306761 2.7892761 3.5354428
1.3504554 2.7902887 3.5345523
1.3703201 2.7888846 3.5343502
1.3893237 2.7900999 3.5349288
1.4103192 2.7879462 3.5353999
1.4288808 2.7900848 3.5348692
1.4490311 2.7904382 3.5350466
1.470176 2.7896829 3.5350411
1.48959 2.7902055 3.5350502
1.5099798 2.789933 3.5353434
1.5299439 2.7907598 3.5355079
1.5505577 2.7897277 3.5355513
1.5710778 2.7893045 3.5345778
1.5899193 2.7910311 3.5351768
1.6099999 2.7891393 3.5354602
1.6306957 2.7892525 3.5349784
1.6506423 2.7897043 3.5348811
1.6697719 2.7890518 3.5355158
1.6897045 2.790436 3.5353181
1.7086202 2.7901003 3.5359569
1.728773 2.7893844 3.5355811
1.7502453 2.7900124 3.5352275
1.7702365 2.7894001 3.5355592
1.7893535 2.7897606 3.5352137
1.8095839 2.7904065 3.5349002
1.8294286 2.7908037 3.5361676
1.8502501 2.7891071 3.535454
1.8698931 2.7901034 3.5357966
1.8896966 2.7898061 3.5364454
1.9095647 2.7894559 3.5361822
1.9289417 2.7905791 3.5360329
1.9488857 2.7901454 3.5360804
1.9702584 2.7902966 3.536252
1.9889609 2.7905536 3.5358965
2.0091946 2.7896941 3.5366945
2.0291646 2.7900162 3.5369933
2.050288 2.7892542 3.5363331
2.0695832 2.79052 3.5373404
2.0894749 2.7904501 3.5367055
2.1090441 2.7902563 3.5369
2.1290393 2.7904284 3.5377536
2.144922 2.7893834 3.535439
2.2366624 2.7896252 3.5361876
2.2501078 2.7893319 3.5369
2.2702439 2.7892094 3.5373752
2.289829 2.7896824 3.5375075
2.309931 2.7901542 3.5375969
2.3298998 2.7896955 3.537123
2.3509393 2.7897995 3.5370824
2.3695035 2.7895894 3.5378289
2.3896325 2.7899888 3.5372488
2.4088519 2.7908084 3.5367699
2.429996 2.7908759 3.5362318
2.4495823 2.7901177 3.5373213
2.469878 2.7897656 3.5373092
2.4888899 2.7901731 3.5366559
2.5082808 2.7903223 3.5364773
2.529808 2.789808 3.5367084
2.5488086 2.7888205 3.5369453
2.5700731 2.790133 3.537163
2.5910964 2.7901185 3.5375595
2.6107733 2.7897699 3.5368402
2.6313703 2.7897444 3.5375185
2.6502862 2.7891686 3.5376482
2.6696208 2.7897494 3.5372837
2.6903002 2.7891324 3.5379641
2.7114408 2.7893274 3.5382233
2.7311468 2.7899029 3.5377307
2.749732 2.7895157 3.537828
2.7703362 2.7897406 3.5379229
2.7905538 2.7914646 3.5383496
2.8094823 2.7901213 3.5379963
2.8307233 2.7896931 3.5379601
2.8499641 2.7897489 3.5379453
2.8706582 2.7896712 3.5377481
2.8909571 2.790266 3.5378573
2.90644 2.7902532 3.5371501
-0.042798001 2.8084197 3.53512
0.5145089 2.8078778 3.5288556
0.57081336 2.8098667 3.5394666
0.59209502 2.80545 3.5394001
0.61231506 2.8106999 3.5392501
0.62632006 2.8110666 3.5392168
0.65374249 2.8059752 3.5391502
0.66549164 2.8118668 3.5390501
0.68678248 2.8101001 3.5387499
0.7103712 2.8092251 3.5386374
0.72917086 2.8091455 3.5382814
0.75075912 2.8105638 3.5389822
0.77117914 2.8096728 3.5386453
0.78772783 2.8071222 3.538511
0.81022298 2.8101099 3.5383599
0.82678467 2.8087921 3.5389307
0.84873933 2.8101687 3.5386126
0.87009156 2.8090074 3.5379844
0.89183152 2.8091571 3.5377781
0.9096626 2.8077731 3.5375333
0.92977691 2.8085539 3.5383077
0.94580841 2.8104923 3.5377612
0.96945 2.8094144 3.5379429
0.99060148 2.8092155 3.5371315
1.0089589 2.8089471 3.5369177
1.0299002 2.8089085 3.5369177
1.0507783 2.8097482 3.5360262
1.0738251 2.8108311 3.5374253
1.0917476 2.8093765 3.5364766
1.1099666 2.8100946 3.536128
1.1288475 2.8118739 3.5366421
1.1491944 2.8097889 3.5366888
1.1710726 2.8096321 3.5365179
1.1913904 2.8097141 3.5359478
1.210865 2.8103504 3.5359898
1.2309455 2.8099909 3.5367594
1.2509239 2.8101618 3.5361528
1.2703182 2.80955 3.5355186
1.2905881 2.810694 3.5360885
1.308938 2.8092525 3.5356092
1.3297422 2.8105345 3.5362773
1.3514297 2.809515 3.5352294
1.371927 2.8092077 3.5360386
1.3897249 2.8101709 3.5355618
1.4096793 2.8098831 3.5354383
1.4299272 2.809741 3.5356729
1.4506277 2.8103209 3.5351968
1.4707958 2.8104084 3.5354497
1.489123 2.8099036 3.535892
1.5098654 2.8104806 3.535377
1.5303155 2.8100271 3.5357311
1.5505424 2.8099611 3.5363119
1.5708482 2.8096182 3.5349853
1.5902462 2.8097849 3.534781
1.6087035 2.8103373 3.5358963
1.6301241 2.810735 3.5358245
1.6488231 2.8093498 3.5356369
1.6693072 2.8096313 3.5360658
1.689175 2.8095376 3.5354533
1.7098002 2.8101654 3.536155
1.7293081 2.809844 3.5361161
1.7506233 2.8106003 3.5357335
1.770691 2.8090436 3.5358779
1.7887868 2.8095865 3.5362964
1.809307 2.8092418 3.5354452
1.829458 2.810055 3.5358324
1.8504398 2.8095238 3.5364532
1.8693311 2.8106072 3.5363896
1.8894501 2.8107285 3.5367863
1.9095185 2.8102112 3.5364003
1.9296768 2.8099694 3.5362544
1.9506031 2.8099101 3.5362575
1.9706581 2.8098741 3.5363452
1.9903064 2.8104906 3.5362527
2.010458 2.8098583 3.5367258
2.0315676 2.8098354 3.537255
2.0511179 2.8094752 3.5366859
2.0706151 2.8097663 3.5371912
2.0905001 2.8103607 3.5373042
2.1106181 2.8102384 3.5371675
2.1298563 2.8110912 3.5374868
2.1445811 2.8082373 3.5358875
2.2365887 2.8095112 3.5370333
2.2490118 2.8098154 3.5377002
2.2688172 2.8079314 3.5377452
2.2890499 2.8101666 3.5376253
2.3105409 2.8097706 3.5380886
2.3301094 2.8099451 3.537684
2.3516521 2.8082159 3.5379314
2.3705029 2.8098264 3.5374293
2.3907156 2.8101041 3.5373855
2.41066 2.8113432 3.5370662
2.4309804 2.8096132 3.5363195
2.4503796 2.8103428 3.5373576
2.4703763 2.8098369 3.5367074
2.4898224 2.8103094 3.5373325
2.5104804 2.810261 3.5371165
2.5298758 2.8103621 3.5369484
2.5485671 2.8097966 3.5372939
2.5697134 2.80948 3.5377569
2.5910649 2.8104422 3.5377309
2.6093941 2.8106411 3.5378439
2.6312034 2.8102241 3.5378723
2.6495769 2.809546 3.5376501
2.6689644 2.8100395 3.5377972
2.6901345 2.8087342 3.5380483
2.7106929 2.8111761 3.5381761
2.7296226 2.8102648 3.5377004
2.7486219 2.8113782 3.5380344
2.7686043 2.808821 3.538729
2.78897 2.8104999 3.5384166
2.8104119 2.8097403 3.5384083
2.8305478 2.8103604 3.5382087
2.851373 2.8100996 3.5379968
2.8699744 2.8096085 3.5378029
2.889961 2.8115199 3.538389
2.9058692 2.8098414 3.5373247
-0.042599 2.8346 3.5236001
0.51285559 2.8322887 3.528589
0.61586499 2.8250749 3.5392501
0.62436998 2.831033 3.5392666
0.64420998 2.8301501 3.5392752
0.6908567 2.8289669 3.5390999
0.71302205 2.8278599 3.5390198
0.73239005 2.8267751 3.5385499
0.74878001 2.8278999 3.5392001
0.76723301 2.8262901 3.5392101
0.78774619 2.8303251 3.5390124
0.80805659 2.832 3.5385664
0.83032888 2.8298113 3.5389001
0.84966201 2.8289104 3.53848
0.86836857 2.8321145 3.5394001
0.89052564 2.8298249 3.5385375
0.9086014 2.8253286 3.5372429
0.92998737 2.8283868 3.5379534
0.94971216 2.8300717 3.5377069
0.973234 2.8320899 3.5379798
0.98946667 2.8306446 3.5375836
1.0104468 2.82918 3.5371001
1.0298287 2.8296719 3.5374043
1.0493125 2.8291125 3.5369627
1.0716125 2.8300498 3.537806
1.0903209 2.8303945 3.5370529
1.1105651 2.8293695 3.5364611
1.1306437 2.829581 3.5372875
1.1495527 2.8296895 3.5365477
1.1697465 2.8304856 3.5366895
1.1905824 2.8286176 3.5366824
1.2098211 2.8292105 3.5365682
1.2304958 2.8303623 3.5368874
1.2491105 2.8304839 3.5365214
1.2692304 2.8288 3.5354826
1.289752 2.8296001 3.5358784
1.3096149 2.8294449 3.5360248
1.3298458 2.830471 3.5361128
1.350538 2.8302951 3.5358241
1.369809 2.8293364 3.535682
1.390381 2.8301997 3.5359385
1.4093362 2.8291998 3.5362458
1.4285519 2.8305922 3.5360119
1.4499044 2.8300817 3.5354636
1.4695582 2.8303125 3.5360291
1.4915501 2.8295496 3.5359864
1.5096637 2.8295908 3.5354593
1.5303807 2.8292577 3.5350847
1.5512227 2.8298776 3.5363863
1.5705656 2.8297155 3.5353887
1.5898952 2.8292501 3.5355456
1.6091408 2.8302221 3.5358856
1.6289808 2.8301113 3.5360544
1.649628 2.8298466 3.5360873
1.6691689 2.8299274 3.5360065
1.6887141 2.8298571 3.5356431
1.7094623 2.8295209 3.5359585
1.7303168 2.8294668 3.536777
1.7509818 2.831459 3.5356817
1.7704148 2.8288739 3.5360706
1.7899888 2.8302779 3.5358553
1.8080711 2.829633 3.5359623
1.828706 2.8300276 3.5363362
1.8499531 2.8306298 3.5366471
1.8689786 2.8310132 3.5360475
1.8890605 2.8293276 3.5368454
1.909211 2.8303516 3.5365374
1.9302592 2.8294187 3.5368657
1.9505067 2.8294864 3.5367334
1.9705749 2.8299906 3.5370629
1.9910967 2.8298936 3.5368969
2.0113418 2.8283794 3.5370338
2.0299842 2.8299963 3.5374346
2.0511374 2.8296347 3.5375278
2.0708463 2.8310819 3.5371075
2.0900321 2.8312175 3.5376925
2.1095264 2.8296201 3.5373731
2.1290617 2.8299844 3.5382464
2.1463706 2.8296235 3.5368526
2.236757 2.8292429 3.5377572
2.251054 2.8292568 3.5382464
2.2702451 2.8275051 3.5387051
2.2897542 2.8294585 3.538142
2.3119907 2.8309999 3.5378571
2.3309002 2.8309357 3.538121
2.3513365 2.8284862 3.5382545
2.3699346 2.8293035 3.537359
2.3903916 2.8301256 3.5377295
2.410116 2.8304386 3.5376291
2.4308202 2.8297317 3.5375478
2.4494352 2.8307128 3.536839
2.4701066 2.8297486 3.5370872
2.4906645 2.8307323 3.5373585
2.5105081 2.8299041 3.5373843
2.5298121 2.830158 3.5369909
2.5488415 2.828079 3.5365753
2.5695724 2.8311589 3.537662
2.5909426 2.8303819 3.5371108
2.6110499 2.8289499 3.5370138
2.6294694 2.8315389 3.5382392
2.6491776 2.8309374 3.5380259
2.6707289 2.8288569 3.5380683
2.6898446 2.830478 3.5380778
2.7084775 2.8295684 3.5374727
2.7303095 2.8307593 3.5382683
2.7506554 2.8293779 3.5386443
2.7696497 2.828233 3.5383751
2.7921791 2.8293107 3.5383108
2.809804 2.8303998 3.537967
2.8296525 2.8281856 3.5384383
2.8504193 2.8285232 3.5383928
2.8704784 2.8303735 3.53824
2.8896775 2.8295047 3.5379429
2.9053888 2.8311853 3.5373442
-0.043357 2.8446667 3.5319669
0.51437801 2.8496299 3.5285103
0.56329674 2.8548334 3.5396664
0.61568999 2.8498001 3.5397
0.64347667 2.8424666 3.5387335
0.66100001 2.8548999 3.5399001
0.70858502 2.8483 3.53935
0.73721999 2.8546 3.5386
0.74758148 2.8534856 3.538857
0.79344124 2.8496375 3.5395126
0.81044257 2.8488634 3.5390909
0.8272751 2.8501301 3.5387702
0.84958285 2.8485997 3.5389714
0.86993748 2.8516829 3.5388086
0.89174497 2.85045 3.5381303
0.91045368 2.85215 3.5376251
0.93066877 2.848244 3.5384314
0.9474647 2.8508265 3.5381267
0.96914011 2.848959 3.5374413
0.99074692 2.8500924 3.5381925
1.0097357 2.8517432 3.5378289
1.0281643 2.8493001 3.5378931
1.05234 2.84724 3.5374198
1.0714386 2.8499155 3.5383382
1.0896875 2.8496685 3.5372436
1.1105697 2.8499477 3.5363178
1.1293449 2.8499901 3.5365601
1.1484131 2.8487656 3.5358829
1.1702167 2.8495166 3.5364082
1.1904665 2.8505147 3.5374334
1.2104563 2.8486438 3.5365438
1.2296002 2.8494959 3.5368402
1.2500435 2.8502781 3.5375397
1.2709216 2.8511999 3.5367517
1.2891374 2.8493125 3.5364563
1.3094858 2.8496377 3.5358956
1.3294914 2.8508086 3.5367043
1.3502001 2.849987 3.5364497
1.3706222 2.8500218 3.5359302
1.3904082 2.8506668 3.5364287
1.4101561 2.8497522 3.5367281
1.4300251 2.8508101 3.5354297
1.4487957 2.848978 3.535748
1.4707301 2.8503969 3.5364165
1.4908955 2.8495317 3.5363863
1.5097075 2.850507 3.5357037
1.5305921 2.8493121 3.5357401
1.5498002 2.849864 3.5361643
1.5710001 2.8507586 3.5359795
1.5905722 2.8490038 3.5358121
1.6107576 2.8501577 3.5359273
1.63064 2.8485801 3.5362649
1.6500615 2.8497963 3.5361269
1.6686956 2.8480749 3.5357749
1.6896034 2.849977 3.5369265
1.7107357 2.8499718 3.536118
1.7305295 2.8496532 3.5361032
1.7504376 2.8499291 3.5368288
1.7699188 2.8492501 3.5364535
1.7888001 2.8503916 3.5371168
1.8099936 2.8498268 3.5366504
1.830532 2.8487883 3.5361602
1.8495157 2.8502002 3.5369611
1.8698852 2.8506107 3.5364928
1.8896141 2.8499143 3.5367317
1.9099299 2.8505819 3.5369411
1.9307472 2.851125 3.5372939
1.951183 2.8496139 3.5372343
1.9704483 2.850352 3.5377522
1.9896628 2.8500192 3.537904
2.0102627 2.8515446 3.5376668
2.0300643 2.8502319 3.5379679
2.050231 2.8505769 3.5372732
2.069056 2.8498397 3.537724
2.0903656 2.8504589 3.5375376
2.1110713 2.8501928 3.5379033
2.1292346 2.8495536 3.5376425
2.1450937 2.848381 3.5377312
2.2363126 2.8479626 3.5384123
2.2481534 2.8503036 3.5377772
2.2680693 2.8492887 3.5382113
2.2889321 2.8504725 3.5383921
2.309063 2.8487949 3.537921
2.3297675 2.8505681 3.5381711
2.3495152 2.8500502 3.5383446
2.3697658 2.8502212 3.5378861
2.3896499 2.8483849 3.5380502
2.4106333 2.8491774 3.537437
2.4285309 2.8498144 3.5373969
2.4488499 2.8501532 3.5372767
2.4700997 2.8494127 3.5374918
2.4899001 2.849787 3.5376639
2.5089819 2.8506966 3.5379786
2.530025 2.8510597 3.5378377
2.5491641 2.8504245 3.5374765
2.5708463 2.8509307 3.537643
2.5912719 2.8505964 3.5383358
2.6108146 2.8489048 3.5382524
2.6302054 2.8497198 3.5379453
2.650048 2.8496399 3.5377841
2.670027 2.8485045 3.5381548
2.6887345 2.8506422 3.5377309
2.7093399 2.850996 3.5383801
2.7295167 2.8490708 3.5382328
2.7512307 2.8492961 3.5382807
2.76914 2.8505299 3.5381
2.7902112 2.8502276 3.5387776
2.8109548 2.84969 3.5378101
2.8300076 2.8511927 3.5384283
2.8516195 2.8507769 3.5384614
2.8706312 2.8501935 3.5386934
2.8897645 2.8494654 3.5379295
2.905529 2.8482711 3.5368922
-0.041926667 2.8702002 3.5238667
0.51443005 2.8696182 3.5268724
0.63514 2.8678 3.5397999
0.66491753 2.8690248 3.5392501
0.69303 2.8782001 3.5397999
0.71223998 2.8743 3.5390501
0.74652839 2.8721333 3.5387833
0.76504999 2.8626668 3.5394001
0.79860997 2.8703499 3.5374498
0.81065267 2.8689799 3.5390537
0.82734329 2.8682165 3.5391333
0.85097671 2.8725002 3.5390666
0.87065399 2.86795 3.5390599
0.89238131 2.8694713 3.5381
0.91125602 2.8709197 3.5376599
0.93212497 2.87251 3.5386596
0.94953746 2.8700314 3.5381563
0.96862751 2.8711665 3.5381749
0.9927637 2.8670273 3.5381181
1.00915 2.8712189 3.5374
1.030525 2.8694 3.5377622
1.0499408 2.8690546 3.5372274
1.0729333 2.8696001 3.5378942
1.0882428 2.8694782 3.5377929
1.109562 2.8692143 3.536438
1.1313928 2.8677716 3.5376782
1.1512222 2.8704612 3.537117
1.1695435 2.8690739 3.5371053
1.1915778 2.8693833 3.537122
1.2126071 2.8705213 3.5378003
1.2301835 2.8689082 3.5372789
1.2496957 2.8697696 3.5373781
1.2702882 2.8707352 3.5363235
1.2907476 2.8701763 3.5371664
1.309541 2.869947 3.5372238
1.3290608 2.8703306 3.5368135
1.3505652 2.8697042 3.5364959
1.370155 2.8690302 3.5363107
1.3894579 2.8697319 3.5364945
1.4094462 2.8704035 3.5371416
1.4303908 2.8703454 3.5370545
1.4494889 2.870178 3.5370409
1.4701693 2.870127 3.5366614
1.4909463 2.8708763 3.5359654
1.5096917 2.869092 3.5363128
1.5308083 2.8700378 3.5360835
1.5508747 2.870168 3.5357575
1.5712678 2.8696196 3.5358226
1.5906726 2.8696067 3.536238
1.6104639 2.8705077 3.5367556
1.628625 2.8687665 3.5364997
1.6486305 2.8696959 3.5359743
1.6699435 2.8701234 3.5362501
1.689984 2.868576 3.5367036
1.7097958 2.8698666 3.5361376
1.7289547 2.8697317 3.5362046
1.7504358 2.8692219 3.5361462
1.7703069 2.8689344 3.536772
1.7889998 2.8703554 3.5371556
1.8100154 2.8704073 3.5363233
1.8294667 2.8704891 3.5368373
1.8498827 2.8705034 3.5371685
1.8706168 2.8698664 3.5375583
1.8906116 2.8693922 3.5366921
1.9092827 2.8697033 3.5373721
1.9289224 2.8694744 3.5370963
1.9497824 2.869518 3.5375609
1.9718516 2.8703377 3.5370409
1.989888 2.8692517 3.5379004
2.0107937 2.8703287 3.5379033
2.0307384 2.8705382 3.5373461
2.0504222 2.8702905 3.5375812
2.0705853 2.8696074 3.5376666
2.0905223 2.870574 3.538089
2.1107092 2.8699636 3.5375593
2.1302102 2.87079 3.5379565
2.1471429 2.8680356 3.5352783
2.2372856 2.868243 3.537957
2.2496409 2.8707554 3.5384109
2.2686 2.8694334 3.5383332
2.2886317 2.8680103 3.5377526
2.3093667 2.8714836 3.5386922
2.330745 2.8707502 3.5388253
2.3522651 2.8704133 3.5385826
2.3708684 2.8696365 3.5383472
2.3913708 2.8696165 3.5380211
2.4113603 2.8693082 3.5382073
2.4293001 2.8699515 3.5381818
2.4504073 2.8691883 3.5377996
2.4703035 2.8693035 3.5381072
2.4902251 2.870075 3.5374248
2.5103781 2.8701785 3.5376608
2.5297418 2.8695374 3.5376835
2.5480297 2.8691602 3.5380199
2.5690138 2.8696182 3.5377045
2.5910628 2.8709106 3.5384521
2.6104083 2.8697417 3.5378208
2.6315601 2.869472 3.5381479
2.6514082 2.8699958 3.5380001
2.6690834 2.8696544 3.537858
2.6894634 2.871582 3.5387456
2.7103579 2.8716526 3.5383053
2.7312546 2.870568 3.5383544
2.7494051 2.8697424 3.5388634
2.7693305 2.8705215 3.5387955
2.7889917 2.8700917 3.5385959
2.8078294 2.8698058 3.5386646
2.8308001 2.8691664 3.5383854
2.851424 2.8689921 3.5384562
2.8703754 2.8698721 3.5383143
2.8897049 2.8696361 3.5381854
2.9048231 2.8697767 3.5375772
-0.044061001 2.8893001 3.5335
0.51494002 2.8891289 3.5288856
0.56330001 2.8856001 3.5388999
0.62910998 2.8841 3.5395999
0.66784 2.8838 3.5397
0.68689501 2.8813 3.53965
0.71818501 2.8975999 3.5397
0.731592 2.8862202 3.5390599
0.74879801 2.8884401 3.5391998
0.77091002 2.8919599 3.5395999
0.78975004 2.8900664 3.5390003
0.81182647 2.8897455 3.5391181
0.82874829 2.8914001 3.5388165
0.85357797 2.8903999 3.53844
0.86935633 2.8898001 3.5391908
0.89214665 2.8895776 3.5389111
0.9100014 2.8915787 3.5387425
0.93133497 2.8902252 3.5381498
0.94953072 2.8897002 3.5383768
0.96846431 2.8898928 3.5379288
0.9898622 2.8914998 3.5390778
1.0093 2.8887627 3.5379376
1.0319313 2.8907125 3.5374501
1.0488054 2.8903787 3.5379527
1.0726929 2.8905861 3.5385144
1.0882944 2.8889167 3.5381224
1.109374 2.8889174 3.5370519
1.1301612 2.8896723 3.5381334
1.149911 2.888478 3.5378726
1.17039 2.8897748 3.5381045
1.1905223 2.8898613 3.537467
1.2093561 2.8895938 3.5377564
1.2281648 2.8882945 3.5373354
1.2493598 2.8890948 3.5365651
1.2695 2.8900998 3.5368681
1.2899501 2.8891449 3.5376003
1.3093183 2.8894498 3.5373182
1.3300381 2.8898716 3.5372431
1.3500961 2.8898001 3.5373747
1.3702849 2.8895249 3.5366199
1.3899592 2.8897588 3.5373816
1.4096041 2.890296 3.5374835
1.4293802 2.8898439 3.5360119
1.4491098 2.8904052 3.5366502
1.4693 2.8895402 3.5366001
1.4889318 2.8912363 3.5368826
1.5090443 2.8881681 3.5366483
1.5302097 2.8897836 3.537003
1.5496842 2.8899107 3.5365582
1.5701704 2.8902884 3.5362554
1.5915375 2.888633 3.5362997
1.6105645 2.8901646 3.5364063
1.6304332 2.8894415 3.5367501
1.6493653 2.8894887 3.536304
1.6692393 2.8897746 3.5367177
1.690323 2.8902462 3.5367849
1.7088913 2.8903954 3.5369477
1.7283927 2.8890593 3.5367293
1.7491038 2.8901334 3.5370448
1.7692307 2.8904266 3.5367622
1.79052 2.8903136 3.5368268
1.8100799 2.8902168 3.5371776
1.8293732 2.8900578 3.537324
1.8503689 2.8898723 3.5368619
1.8705086 2.8891504 3.5372875
1.8907517 2.889159 3.5376806
1.9108688 2.8904309 3.537338
1.9291905 2.8904047 3.5378146
1.9496999 2.8896551 3.5379188
1.970089 2.8892002 3.537348
1.9906785 2.8898177 3.5376713
2.0093598 2.8899693 3.5378268
2.030411 2.8907816 3.5375743
2.0516577 2.8889885 3.5380614
2.0711172 2.889631 3.5377178
2.0906212 2.8912544 3.5378487
2.1109209 2.8898368 3.5385635
2.1274791 2.8902683 3.5384426
2.1455116 2.8881235 3.5367351
2.2384 2.894325 3.5381501
2.2515128 2.8894455 3.5385418
2.2705765 2.8911352 3.5389471
2.2913611 2.889894 3.5388668
2.3104417 2.8904667 3.5389416
2.3280537 2.8887076 3.5381
2.3480375 2.8893564 3.5383875
2.3700645 2.8910704 3.5388584
2.3893769 2.8915694 3.5383458
2.4102955 2.8895957 3.5381827
2.4305041 2.8900723 3.5381925
2.4499555 2.8883481 3.5372889
2.470526 2.8896806 3.5382903
2.48858 2.8887801 3.537276
2.5101471 2.8891323 3.5376911
2.5305102 2.8883789 3.5377789
2.5504379 2.8902032 3.5371344
2.5710318 2.889442 3.538121
2.5898194 2.8909535 3.5382962
2.6105368 2.8904667 3.538326
2.6314526 2.8884997 3.5375664
2.6512811 2.8906145 3.5380478
2.6687512 2.8893688 3.5388241
2.6889558 2.8889205 3.5386643
2.7099073 2.8904643 3.5383
2.7292793 2.8903751 3.5384915
2.7491739 2.8869474 3.538542
2.7694213 2.8894787 3.5386713
2.7902203 2.8894522 3.5385916
2.8095889 2.8868718 3.5390167
2.8293216 2.8893714 3.539036
2.8499367 2.8906789 3.538779
2.8706074 2.8905964 3.5384779
2.8893118 2.8900707 3.5384562
2.9035919 2.8900251 3.5376253
-0.044803333 2.9120333 3.5295668
0.51551336 2.9126666 3.5250332
0.62932998 2.9133 3.5397
0.64925998 2.9017 3.5392001
0.70772249 2.9081502 3.5392499
0.72514999 2.9108 3.539
0.75567001 2.9081001 3.5392001
0.76967001 2.9084003 3.5391998
0.78291249 2.90765 3.5391502
0.81082696 2.9101 3.5386901
0.822115 2.9101501 3.5381501
0.84682208 2.9053998 3.53918
0.87423599 2.9121799 3.5392601
0.88922834 2.9094169 3.5392001
0.91293663 2.9089 3.5384665
0.92752564 2.9104428 3.5383284
0.95277375 2.9077749 3.53865
0.97054702 2.9059899 3.5383897
0.99057823 2.9090636 3.5387001
1.00884 2.9101701 3.5381303
1.0306134 2.9114995 3.5385334
1.0494499 2.910722 3.5379612
1.0735999 2.9077559 3.5386553
1.09145 2.9101548 3.5383651
1.1115944 2.9097888 3.5378613
1.1303521 2.9096563 3.5384002
1.1511999 2.9102557 3.5378006
1.1694647 2.9118474 3.5381706
1.1888001 2.9100468 3.5380335
1.2095413 2.9100821 3.5384119
1.229956 2.9097598 3.5380676
1.2510699 2.9091449 3.5376849
1.2714646 2.9089468 3.537971
1.2906688 2.9095755 3.5375686
1.3095165 2.9096556 3.5374165
1.3289001 2.909327 3.5376635
1.3491958 2.9098833 3.5374539
1.3704456 2.9099548 3.5374682
1.3913914 2.9098213 3.5373435
1.410652 2.9094803 3.53772
1.4312373 2.909446 3.5375042
1.4501752 2.9101331 3.5372212
1.4704421 2.9100485 3.5374229
1.4912839 2.910176 3.5378201
1.50965 2.9101729 3.5372002
1.5287758 2.9095001 3.537128
1.549654 2.9090385 3.5369344
1.5707159 2.9090264 3.5369792
1.5905668 2.9110096 3.5370193
1.6105334 2.9093373 3.5367334
1.6308382 2.9097333 3.5365241
1.64915 2.9093363 3.5370088
1.6690966 2.9097097 3.5372739
1.6901 2.9109323 3.5371006
1.7106147 2.9108219 3.5371037
1.7302135 2.908823 3.5377996
1.7492582 2.9100707 3.537596
1.7701719 2.9094815 3.5373876
1.7916778 2.9109483 3.5373077
1.8095777 2.9101388 3.5379667
1.8277917 2.9102125 3.537792
1.8501321 2.9098401 3.5377319
1.8711592 2.9099336 3.5376339
1.8909792 2.9084897 3.537616
1.9100107 2.9075739 3.5378053
1.9314708 2.9067178 3.5379825
1.9494144 2.9055214 3.537657
1.9701071 2.9048715 3.5377216
1.9891714 2.9031999 3.5376287
2.0073891 2.9027889 3.5375555
2.0294425 2.9023998 3.5373428
2.0495601 2.9019203 3.5381598
2.0674667 2.9013336 3.5387332
2.0861001 2.901 3.5395999
2.335 2.9010999 3.5395999
2.3522251 2.9014001 3.5386999
2.3728333 2.9020336 3.5388334
2.3894 2.9022202 3.5383401
2.4108665 2.9032497 3.5388336
2.4311898 2.9043198 3.5376401
2.4507055 2.9045115 3.5383501
2.4699771 2.9056997 3.5380082
2.4903646 2.906847 3.5376763
2.511348 2.9071655 3.5380611
2.5299501 2.9092293 3.5383129
2.5505559 2.9110682 3.5381277
2.5690124 2.9110813 3.5383124
2.5899866 2.9097497 3.538841
2.6090477 2.9091687 3.5383582
2.6299918 2.9111557 3.5383196
2.6505165 2.9112556 3.5384724
2.6690288 2.9109714 3.5384049
2.6900568 2.9089146 3.538609
2.7096117 2.9099941 3.5386939
2.7332165 2.9089334 3.5384998
2.74914 2.9093003 3.53866
2.7706354 2.9093118 3.5384591
2.7877536 2.9074469 3.5381665
2.8084996 2.9084332 3.538487
2.8309259 2.9087522 3.5386479
2.8525045 2.9097698 3.5385005
2.8694999 2.9073865 3.5383499
2.8905332 2.9109602 3.5385969
2.9033272 2.9109361 3.5376005
-0.043509666 2.9253333 3.5375335
0.51277 2.9266 3.5211999
0.68756998 2.9330001 3.5395
0.72513002 2.9301 3.5392001
0.76133001 2.928 3.5397
0.79615998 2.9289999 3.5387001
0.80987501 2.9273 3.5388501
0.82789749 2.9335248 3.5393748
0.85197604 2.9311402 3.5394001
0.87394857 2.9284997 3.5393283
0.89421141 2.9304001 3.5393999
0.91301394 2.92872 3.5389602
0.93017 2.9324999 3.5399001
0.94913673 2.9291916 3.5389254
0.96934795 2.9305301 3.5386901
0.99179125 2.9330375 3.5385125
1.0044 2.93048 3.5388999
1.0308787 2.92695 3.5386283
1.0486916 2.9318583 3.5383835
1.0746377 2.9282625 3.5390377
1.0912106 2.9298315 3.5381529
1.1114 2.9277086 3.5379729
1.1296188 2.9317188 3.5386686
1.1511538 2.9289389 3.5378077
1.1690733 2.9296331 3.5377336
1.1888868 2.9303131 3.5383866
1.2097375 2.9308252 3.5382748
1.2292905 2.929224 3.5378287
1.2511599 2.92958 3.5386739
1.2716531 2.9287241 3.5375414
1.2911611 2.929883 3.5378723
1.3091086 2.9306393 3.5380173
1.3298334 2.9310238 3.5382664
1.3501271 2.9289773 3.5377321
1.370361 2.9295909 3.5376823
1.3899956 2.9286866 3.5377645
1.4125201 2.9280996 3.5376401
1.4301318 2.9301453 3.5374544
1.4491599 2.9300201 3.5372002
1.4694629 2.9316707 3.5375891
1.4905407 2.9297998 3.5374229
1.5090189 2.9309001 3.5374665
1.5294502 2.9301105 3.5375609
1.5497408 2.930119 3.5373218
1.5702597 2.9298561 3.5372937
1.5907307 2.9307189 3.5371845
1.6105807 2.92945 3.5376925
1.6310827 2.9286306 3.5376477
1.6507691 2.9295423 3.5375764
1.670463 2.9295073 3.5377116
1.6900231 2.9301636 3.5375001
1.7105664 2.9306171 3.5379374
1.729607 2.9291894 3.5376506
1.7488865 2.9300637 3.5378821
1.7706332 2.9267275 3.5372388
1.7908834 2.9245331 3.5368252
1.8098714 2.9230998 3.5377145
1.8305665 2.9232833 3.5383832
1.8488142 2.9206998 3.5380282
2.5695667 2.9209001 3.5384998
2.5904665 2.9226665 3.5385497
2.6091223 2.924567 3.5382109
2.6304252 2.9265749 3.5386915
2.6512334 2.9267333 3.5386
2.6697052 2.9279952 3.5382347
2.68753 2.92959 3.53824
2.7066734 2.9290683 3.5385051
2.726207 2.9302926 3.5385857
2.7509785 2.9295642 3.5387287
2.7699502 2.9327624 3.5387001
2.7899437 2.9309688 3.5385318
2.8096924 2.9292073 3.5387845
2.8316665 2.9283442 3.5386782
2.8520176 2.9290528 3.5384824
2.8714843 2.9301441 3.5383766
2.8914344 2.9300718 3.5383663
2.9031668 2.9317446 3.5382335
-0.043336 2.9565001 3.5344
0.51327664 2.9532001 3.5211334
0.74779999 2.9446001 3.5399001
0.76235998 2.9514 3.5388
0.79416341 2.9472668 3.5388668
0.80970001 2.94785 3.53935
0.84548998 2.9452 3.5383501
0.87327003 2.9507499 3.5394502
0.89142716 2.9506857 3.5389142
0.91456002 2.9530334 3.5394335
0.93399 2.9496167 3.5389001
0.95003128 2.9500999 3.5384626
0.96341002 2.9504399 3.5388401
0.99318707 2.9497569 3.5392139
1.0087399 2.9519801 3.5388598
1.0310334 2.9509916 3.538842
1.0513084 2.947108 3.5382919
1.0723901 2.9508202 3.5385399
1.0890154 2.9504924 3.5384696
1.1094934 2.9483733 3.5380402
1.1319834 2.9496663 3.5385001
1.15081 2.9502046 3.5378947
1.1690308 2.9489386 3.5387154
1.1892352 2.949053 3.5380943
1.2119428 2.9503713 3.5382786
1.2292063 2.9490812 3.5385935
1.2514683 2.9488103 3.5378947
1.2722615 2.9507153 3.5380771
1.2884942 2.950006 3.5384004
1.3107942 2.9478292 3.5380416
1.3318437 2.9486375 3.5376937
1.3507252 2.949075 3.5380101
1.3719714 2.9489212 3.5387142
1.3913046 2.9500046 3.5384138
1.4120646 2.9488587 3.537394
1.4308137 2.9496911 3.5378182
1.4494001 2.9493525 3.5382268
1.4683273 2.9510498 3.5377777
1.4905895 2.9498105 3.538379
1.5121 2.950305 3.5378203
1.5303471 2.9498763 3.5371294
1.5495286 2.9495618 3.5377953
1.5695 2.950032 3.5378091
1.5882953 2.9492669 3.5376906
1.6095501 2.9505339 3.5382168
1.6295773 2.9505136 3.5380914
1.650237 2.9465837 3.5378213
1.6704499 2.9463167 3.5377247
1.6896375 2.9438248 3.537375
1.70705 2.9419832 3.5376499
1.7230999 2.9403501 3.5384002
2.6968 2.9419999 3.5395999
2.7091 2.9439001 3.5393
2.7335498 2.9452832 3.5387335
2.7516818 2.9473727 3.5377817
2.7697284 2.9479573 3.538343
2.7899797 2.94946 3.53913
2.8098497 2.9494376 3.5390124
2.83178 2.95204 3.5390599
2.8548167 2.9515002 3.5388498
2.8693402 2.9522698 3.5388799
2.8904998 2.9504259 3.5385742
2.9026399 2.95103 3.5376503
-0.044146001 2.9763999 3.5208001
0.68800002 2.977 3.5395999
0.74447 2.9672 3.5387001
0.78560334 2.9711001 3.5390666
0.81616998 2.9768 3.5388999
0.83939999 2.9690001 3.5390999
0.85597003 2.9782 3.5399001
0.86773342 2.9724166 3.5393667
0.89526749 2.97385 3.5395501
0.91054404 2.9707599 3.5382602
0.93279803 2.9710598 3.5395
0.94884998 2.9723666 3.5392332
0.97285998 2.9697602 3.5385602
0.99022335 2.9746168 3.5394001
1.0024999 2.9754252 3.53865
1.0309545 2.9700272 3.5389001
1.0500666 2.9728222 3.5389333
1.0717332 2.9696221 3.5385332
1.0889721 2.9701612 3.5383334
1.110615 2.9698999 3.5384998
1.1306499 2.9705753 3.5386746
1.1513883 2.9700532 3.5383294
1.1681376 2.9695499 3.539125
1.19045 2.9722199 3.5390201
1.2100589 2.9691825 3.5380473
1.2302386 2.9700077 3.5377922
1.2485694 2.9687541 3.5390229
1.269938 2.9693093 3.5381906
1.29005 2.9702814 3.5381815
1.3124294 2.9706588 3.5384591
1.3321 2.9680898 3.5385003
1.3490125 2.9700999 3.5384128
1.3720167 2.9687388 3.5381222
1.3896 2.9678931 3.538307
1.4102707 2.9683292 3.5376766
1.4291528 2.9689119 3.5380998
1.4480222 2.9692168 3.53845
1.4702952 2.9681571 3.5378952
1.4896374 2.96945 3.5378625
1.5124688 2.9702938 3.5383875
1.5301526 2.9696684 3.5379105
1.5486876 2.9687939 3.5379627
1.566754 2.9659383 3.5382462
1.5923125 2.9631627 3.5376625
1.6059333 2.9624999 3.5377667
2.7967 2.9614 3.5399001
2.8113668 2.9625666 3.5389001
2.832675 2.9641502 3.5387001
2.8524001 2.9714999 3.53985
2.8700502 2.9673998 3.5390003
2.8925047 2.9692144 3.5384765
2.9029 2.965925 3.5381498
0.51551002 2.9981999 3.5264001
0.74421 2.997 3.5394001
0.79545999 2.9937999 3.539
0.81389499 2.9928501 3.53915
0.86769003 2.9885333 3.5395336
0.89063501 2.9933 3.5392251
0.90807998 2.9888999 3.5387001
0.93523002 2.9944 3.5392001
0.94850999 2.9833333 3.5386
0.96919805 2.98774 3.5391998
0.99342251 2.9881501 3.5394249
1.0077444 2.9886775 3.5384779
1.0299001 2.9908082 3.5390837
1.0474333 2.9898834 3.5388584
1.0754832 2.991967 3.5383666
1.0895001 2.9900916 3.5387084
1.1104363 2.9889269 3.5387452
1.1309 2.988462 3.5389848
1.1495358 2.9887216 3.5387571
1.1680636 2.9884911 3.5389183
1.1910545 2.9884818 3.5387275
1.2107692 2.9896231 3.5386539
1.2313933 2.9881003 3.5390537
1.250246 2.9879 3.5387001
1.27145 2.9890354 3.5385284
1.2902502 2.9889627 3.5382562
1.3098412 2.9884291 3.5385177
1.3310144 2.9885857 3.5384502
1.3492867 2.9875267 3.5386128
1.3702273 2.9879365 3.5385091
1.3884125 2.9892938 3.5386753
1.4112 2.9886847 3.5387614
1.4299313 2.9887812 3.5383689
1.4516068 2.9881935 3.5385466
1.4709707 2.9876063 3.5383058
1.4894181 2.9847274 3.5383456
1.5107332 2.9831498 3.5387497
1.5257 2.98085 3.53845
2.8934 2.9828999 3.5392334
0.51551998 3.012017 3.5243666
0.80992496 3.0011001 3.5395999
0.85110003 3.0085001 3.539
0.867935 3.0137999 3.5394502
0.94041997 3.0072 3.5397999
0.97000337 3.0114 3.5392666
0.99114674 3.0059335 3.5395
1.00545 3.0113502 3.5392499
1.03327 3.01107 3.5390098
1.0508636 3.0100362 3.5385818
1.0751499 3.0079334 3.5388832
1.08726 3.0084803 3.5385597
1.109489 3.008189 3.5385997
1.1304768 3.0087848 3.5384231
1.1519401 3.0121398 3.5386498
1.1709777 3.0084667 3.5388
1.1896222 3.0124776 3.538878
1.2126428 3.009043 3.5384002
1.2328334 3.0118999 3.5389998
1.2495 3.012131 3.5383611
1.2722126 3.0096185 3.5386627
1.2916999 3.0099692 3.5383151
1.3089199 3.0132499 3.5388298
1.3324889 3.0085447 3.5386446
1.3503875 3.010231 3.5388503
1.3713412 3.009347 3.538065
1.3894721 3.0082333 3.5387557
1.4094833 3.0062835 3.5387001
1.4257751 3.0039752 3.53795
0.51560003 3.0307331 3.5316334
0.89246339 3.0317333 3.5396335
0.91184998 3.02775 3.53935
0.92829996 3.0318334 3.5387669
0.94732124 3.0276999 3.5389125
0.97342002 3.0271502 3.5395501
0.98917753 3.028125 3.538975
1.00275 3.0303001 3.5394502
1.0289445 3.0310445 3.5391667
1.0533501 3.0318503 3.5387702
1.0761 3.0329001 3.538825
1.0972 3.0338666 3.5390332
1.1140801 3.0288401 3.5388198
1.1303858 3.0278001 3.5386999
1.1497 3.0310001 3.5383337
1.17005 3.03145 3.53935
1.189823 3.0286849 3.5384843
1.2102101 3.0293798 3.5387702
1.2304124 3.029175 3.5387499
1.2485999 3.0266771 3.5387151
1.2721125 3.0277128 3.5392251
1.2886333 3.0292001 3.5384336
1.3091726 3.0292909 3.5387092
1.3292875 3.0254126 3.5384872
1.3530668 3.0242167 3.5387499
1.3676001 3.02105 3.5379
0.51547498 3.04495 3.5274
0.87449998 3.0490999 3.5387001
0.936755 3.0520501 3.5394502
0.95719999 3.0596001 3.5397
0.96377331 3.0506668 3.5394669
0.98997998 3.0525999 3.539
1.0084751 3.0498252 3.538975
1.0376 3.0487499 3.5387001
1.0518667 3.0474834 3.5390332
1.07515 3.0495749 3.5392749
1.0900692 3.0498769 3.5388389
1.1114835 3.0530999 3.5383999
1.1285799 3.0490601 3.5393798
1.1499571 3.0496571 3.538343
1.17048 3.0511601 3.5396399
1.1905667 3.0506444 3.5390668
1.2092501 3.052 3.53917
1.2302749 3.04915 3.5388498
1.2492501 3.0483916 3.5390081
1.267925 3.047925 3.5386751
1.2832501 3.0432 3.5387001
0.51571 3.06972 3.5345798
0.89718997 3.0608001 3.5386
0.90665996 3.0637 3.5391998
0.93566 3.0768001 3.5392001
0.95986003 3.0757999 3.5399001
0.9658733 3.0644 3.5390332
0.99997002 3.0641 3.5397
1.0019333 3.0747335 3.5396335
1.0351501 3.070575 3.5394499
1.0510445 3.0681555 3.5390334
1.0745429 3.0692003 3.5391574
1.0902286 3.0693145 3.5390286
1.1146001 3.0680666 3.5393333
1.1312999 3.0712833 3.538975
1.1503223 3.0706778 3.5390668
1.1698428 3.0706716 3.5388715
1.18455 3.0736499 3.5394499
1.2088143 3.0663857 3.5393715
1.2283499 3.0606999 3.5393
1.242 3.0601001 3.5397
0.51496667 3.0876 3.5215666
0.85165 3.0848999 3.539
0.93632001 3.0836999 3.5383999
0.95201999 3.0809 3.5394001
1.00316 3.0881801 3.5391998
1.0365 3.0868332 3.5390999
1.0561999 3.0908999 3.5386748
1.07465 3.0903001 3.5394001
1.0876777 3.0892112 3.5389776
1.1108201 3.09114 3.5392997
1.1287333 3.0876112 3.5391109
1.1515599 3.0856602 3.5395799
0.51573998 3.1083 3.5211
0.76288998 3.1006999 3.5397999
0.85109001 3.1082001 3.5397999
0.91079497 3.1135001 3.5395
0.96340501 3.1089501 3.53915
0.99466497 3.1080501 3.5393832
1.016 3.1173 3.5395999
1.0324 3.1085501 3.5388
1.0757 3.1092002 3.5394669
1.0877334 3.1081333 3.5393667
1.1086 3.1043 3.5397
0.5150125 3.131825 3.528275
0.90806001 3.1348 3.5397999
1.0042 3.1217499 3.5397
1.0359499 3.1224499 3.53935
1.0474501 3.1233501 3.5395
0.99493998 3.1401999 3.5397
0.51539713 3.1654429 3.5313001
0.51638496 3.1847501 3.5357001
0.51532 3.2110002 3.5325334
0.512492 3.23352 3.5257201
0.51207 3.2433 3.52175
0.51612997 3.2829001 3.5201001
0.51273 3.3116 3.5239999
0.51085001 3.3436999 3.5299001
-0.024165001 2.2304001 3.5402999
0.031830002 2.2353001 3.5402999
0.085235 2.2284 3.5404999
-0.024293501 2.2540002 3.5408499
-0.0048368499 2.2760501 3.5411
-0.040642001 2.2899001 3.54
-0.037691001 2.2895999 3.5413001
0.087020002 2.2859001 3.5402
-0.030102249 2.3134251 3.5412502
-0.014541 2.3185999 3.5421
0.0051515 2.3105001 3.5409498
0.077358998 2.3166001 3.5414
0.096890002 2.3134999 3.5401001
0.13104001 2.3081999 3.5404
-0.040948 2.3259666 3.5409667
-0.038339667 2.3255665 3.5413666
-0.012434666 2.3323333 3.5407333
0.034582999 2.3329999 3.5401001
0.074070744 2.3262248 3.5406752
-0.024333 2.3427 3.5429001
0.015554 2.3510001 3.5408001
0.025386 2.3543 3.5404999
0.053174 2.3447001 3.54
0.062089 2.3580999 3.5404
-0.039753001 2.3677001 3.5409
-0.013350667 2.3734665 3.5423334
0.0072090002 2.3773 3.5407
0.11484 2.3615 3.5404999
0.13296001 2.3728001 3.54
-0.040098999 2.3957 3.5418999
-0.034143999 2.3913 3.5419667
0.016991001 2.3855 3.5404
0.024951499 2.3943 3.54175
0.061395496 2.3872249 3.5415497
0.090039998 2.3998001 3.5401001
0.28156999 2.3826001 3.5408001
-0.041437 2.4189999 3.5434
0.044652499 2.41185 3.54105
0.069643997 2.41225 3.54075
0.097178333 2.4060669 3.5416667
0.115865 2.40625 3.54055
0.12373666 2.4084668 3.5410664
-0.0418435 2.4303 3.5419998
-0.038812999 2.4298501 3.5425248
-0.012908333 2.4238331 3.5430996
0.017666999 2.4230001 3.5407
0.0361735 2.4383998 3.54105
0.064475745 2.4243751 3.541575
0.12564 2.4398 3.5401001
0.24272001 2.4342499 3.54035
0.29064 2.4322 3.5404999
-0.042505998 2.4468999 3.5409
-0.028408667 2.4513333 3.5435667
0.0186185 2.4554 3.5405998
0.035269666 2.4532332 3.5420666
0.11638 2.454 3.5411
0.130885 2.44135 3.5413001
0.23525999 2.4546001 3.5402
-0.040303499 2.46855 3.5436001
-0.026995856 2.468643 3.5435712
0.0087052332 2.4751999 3.5417001
0.044343002 2.47575 3.54265
0.072588749 2.4718251 3.5413499
0.090270996 2.4696429 3.5413284
0.111065 2.46965 3.5404501
0.29111001 2.4721999 3.5409
0.31489 2.4790001 3.5409
-0.040472999 2.4823 3.5402999
-0.027423998 2.4886 3.5436001
0.016945999 2.4977 3.54285
0.031357002 2.4837999 3.5459001
0.0663445 2.4837 3.5412748
0.090754665 2.4938667 3.5426667
0.110246 2.4941001 3.5412598
0.25156498 2.4896998 3.5408001
0.28984249 2.4900501 3.5406001
0.31465998 2.4869668 3.5412667
0.33524501 2.4969499 3.5402
0.36950999 2.4886 3.5401001
-0.040966999 2.5137999 3.5451
-0.038268 2.5106001 3.5448
0.016135 2.5018001 3.5436001
0.036311001 2.5012999 3.5422502
0.070784755 2.5083749 3.5408502
0.1085 2.5115335 3.5416
0.23578 2.5097001 3.5406001
0.25266999 2.5109 3.5402
0.31492999 2.5026 3.5413001
0.36813 2.5195 3.5420001
-0.038979501 2.5339499 3.5439501
-0.00077561999 2.536 3.5434
0.019592 2.5314 3.5414
0.029422499 2.5316501 3.5409498
0.063285999 2.52595 3.5429001
0.114495 2.5316 3.5415502
0.23946001 2.5281999 3.5413001
0.24411 2.5345001 3.5409498
0.31080332 2.5238667 3.5407
0.33173999 2.5272 3.5404
0.37257499 2.52665 3.54145
-0.043322999 2.5552001 3.5402
-0.032829165 2.54915 3.544883
0.0070722252 2.5513749 3.5419998
0.048004001 2.5429001 3.5409999
0.070591196 2.5520799 3.5409999
0.24895999 2.5441999 3.5405002
0.29250333 2.5525334 3.5410998
0.312085 2.55775 3.5413499
0.37788999 2.54865 3.5404999
0.50990337 2.5523999 3.5405667
0.52850997 2.5416 3.5415001
0.59119999 2.5476 3.5402
-0.037491001 2.5646999 3.5434999
0.013574949 2.5636001 3.54335
0.0296355 2.56745 3.5416
0.053247999 2.5799 3.5411999
0.11738 2.5755 3.5427499
0.23723 2.5722001 3.5406001
0.25043333 2.5725334 3.5409334
0.26703 2.5791667 3.5407667
0.29385 2.5737 3.5402
0.30882001 2.5680001 3.5409
0.326195 2.5722749 3.5411
0.34138501 2.5736001 3.5411999
0.37889001 2.5776 3.54
0.53018999 2.5748999 3.5402
0.55201 2.5722001 3.5408001
0.57089996 2.5700998 3.5407667
0.76370001 2.5743001 3.5402
-0.036047 2.5903001 3.5429001
0.034789998 2.5980666 3.5430334
0.049216501 2.58075 3.5409
0.075361997 2.5952001 3.5415001
0.103535 2.5952501 3.5440001
0.24607 2.5920999 3.5402999
0.27403998 2.5855999 3.54055
0.2877 2.58605 3.54075
0.33215666 2.5848334 3.5411665
0.34108999 2.5961001 3.5401001
0.36305001 2.5838001 3.5407
0.38545001 2.5904 3.5411999
0.53056002 2.5929 3.5401001
0.68923002 2.5892999 3.5404999
0.88178003 2.5899999 3.5401001
-0.021271501 2.6187501 3.5464001
-0.0078723999 2.602 3.5429001
0.015089001 2.6168599 3.5432801
0.038459502 2.6143498 3.5429001
0.041421998 2.6136 3.543
0.27525571 2.6148429 3.5410857
0.29148 2.61358 3.54178
0.31733999 2.6018 3.5409
0.3263 2.6157668 3.5411332
0.36787 2.6145999 3.5402999
0.53024334 2.6160667 3.5408669
0.58486003 2.6164999 3.5409
0.68937999 2.6024001 3.5404999
-0.0206585 2.6303501 3.5461001
-0.0099092247 2.6334748 3.5451751
0.0011048 2.6391001 3.5441
0.038757 2.6296999 3.543
0.045873001 2.63012 3.5431602
0.091281503 2.6273499 3.5438499
0.11904333 2.6254332 3.5423667
0.121395 2.6321502 3.5405002
0.22502598 2.6342001 3.5413399
0.24576332 2.6315999 3.5413666
0.27053332 2.6345334 3.5422001
0.29403251 2.6301501 3.5421
0.30781114 2.6342223 3.5422668
0.32841498 2.629425 3.5418248
0.35129499 2.6297998 3.5418501
0.37829 2.6289999 3.5415001
0.50998998 2.6244001 3.5404
0.57142496 2.62655 3.54105
0.58561999 2.6275001 3.5402
0.65811503 2.6242499 3.5401499
-0.034817874 2.6519375 3.5464623
-0.0080584995 2.6441002 3.5448751
0.0124625 2.6413 3.5422001
0.036343336 2.6488335 3.5453665
0.051335335 2.6489 3.5418003
0.064815 2.6428499 3.5441499
0.099384502 2.6510501 3.5448999
0.10704999 2.6512499 3.5421748
0.224135 2.6487999 3.5422001
0.25509998 2.6545668 3.5407665
0.2700825 2.6525249 3.5417252
0.29398999 2.6497333 3.5415332
0.30903715 2.6464002 3.5411286
0.33126998 2.6444333 3.5418665
0.34700501 2.64505 3.54075
0.36592165 2.6523666 3.5410166
0.51732504 2.6514001 3.5404999
0.52407336 2.6497667 3.5407
0.55802 2.6482 3.5409
0.57920998 2.6494999 3.5402999
0.69028997 2.6531 3.5401001
0.74906498 2.6507001 3.5404999
2.8361001 2.6530001 3.5402999
2.9166 2.6593001 3.5401001
0.021441001 2.6677999 3.5429001
0.051222336 2.6655333 3.5434334
0.065814003 2.6722999 3.5439501
0.09601 2.6698 3.54445
0.1104125 2.6717 3.5433748
0.120645 2.6617999 3.54175
0.23153572 2.6661856 3.5429287
0.27873001 2.6600001 3.5413001
0.28055 2.6645999 3.5416
0.31167999 2.6661332 3.5424998
0.35613 2.67065 3.5416498
0.368 2.6662002 3.54105
0.51718497 2.66905 3.5409498
0.53057665 2.6745999 3.5414333
0.55616999 2.6683002 3.5414
0.57216501 2.6756501 3.5409999
0.58937502 2.66875 3.54035
0.67720002 2.6700001 3.5406001
0.706025 2.6691999 3.5401001
0.72776002 2.6659999 3.5402
-0.041187 2.697 3.5416
-0.037645336 2.6848001 3.5436668
-0.00012927 2.6817999 3.5460999
0.0096826097 2.6869502 3.5455499
0.020083001 2.6947 3.5446
0.070793502 2.6863251 3.5427248
0.108135 2.6928 3.5429749
0.23126 2.6898 3.5413499
0.26851252 2.68555 3.541075
0.28511 2.6882999 3.5432999
0.31248498 2.6918499 3.5416
0.33355498 2.69485 3.5418501
0.34683502 2.68645 3.5417001
0.36839333 2.6935332 3.5412331
0.38079 2.6989 3.5402999
0.51802498 2.69085 3.54035
0.53228748 2.6866126 3.5406873
0.55528498 2.69045 3.5408499
0.57292402 2.6945002 3.5404
0.58964002 2.6916499 3.5404
0.61576003 2.6998 3.5409999
0.63274503 2.68365 3.54
0.67172003 2.6939001 3.54
0.70911002 2.6954 3.5406001
0.83617002 2.6954999 3.5404999
2.7170999 2.6835001 3.5402
2.7483001 2.6826 3.5404
-0.030599201 2.7093999 3.5470402
0.0087080998 2.7111502 3.5467
0.038636997 2.7116997 3.5448334
0.055062 2.7112665 3.5425003
0.063995004 2.7013502 3.5440998
0.10213 2.7014999 3.5437
0.229615 2.7121751 3.5413752
0.24381001 2.7171333 3.5447998
0.26877499 2.7052999 3.5440502
0.28839284 2.7112002 3.5417285
0.30192 2.7133999 3.5427001
0.3326 2.7002001 3.5427999
0.353205 2.70785 3.54145
0.3804 2.7063999 3.5408001
0.51609248 2.7076001 3.5417252
0.53306997 2.71575 3.541225
0.55921334 2.7063668 3.5405998
0.57327002 2.7018001 3.5402
0.58389997 2.7088251 3.540525
0.61353832 2.7130165 3.5407169
0.65555 2.7142501 3.5404999
0.67162001 2.7145 3.5404
0.71266001 2.7050748 3.540175
0.79816997 2.7075 3.54
0.80078 2.7091999 3.5404999
0.84799999 2.7144001 3.5402
2.7195001 2.7163 3.5404999
2.77775 2.7156 3.5401001
-0.019284502 2.73475 3.5474
0.039804 2.7393999 3.5445001
0.046272248 2.726125 3.542675
0.065656856 2.7299285 3.5436287
0.090876997 2.7258 3.54615
0.105372 2.73138 3.5444801
0.233144 2.7335401 3.5439401
0.25117669 2.7234001 3.5443668
0.26100335 2.7248669 3.5441332
0.293805 2.73435 3.5433002
0.31177571 2.7272286 3.5437143
0.34209603 2.7323999 3.5423198
0.36718833 2.7286832 3.5423834
0.51319426 2.7294571 3.541343
0.52878803 2.7333601 3.5413201
0.54479003 2.7239001 3.5416
0.56624001 2.7340999 3.5408001
0.58033001 2.7277 3.5401001
0.61223 2.7283332 3.5404003
0.63277251 2.7279251 3.540575
0.66872001 2.7335 3.5402999
0.72835004 2.7354002 3.54035
0.75897002 2.7315502 3.5404
0.80133998 2.7221999 3.54
0.8362267 2.7279332 3.5407665
0.8883 2.7256999 3.5402
2.8128335 2.7287667 3.5402668
2.8724499 2.7293501 3.5401001
0.042038001 2.74245 3.5427499
0.22841166 2.7468331 3.5436332
0.25307 2.7574 3.5445001
0.26866999 2.7474334 3.5424664
0.294375 2.7504001 3.5431499
0.30993 2.7560999 3.5434
0.34453666 2.7483666 3.5419667
0.37407398 2.74266 3.5424798
0.51313716 2.7479999 3.5422001
0.53350669 2.7542999 3.5408001
0.555655 2.7585001 3.5415001
0.57152671 2.7437999 3.5413332
0.58492666 2.7577333 3.5404332
0.60982752 2.7500999 3.5409501
0.63251996 2.7507751 3.5411251
0.65570498 2.7568998 3.5409
0.67173499 2.7488999 3.5406499
0.70949 2.7407 3.5406001
0.73297751 2.7546499 3.5406251
0.75040668 2.7461669 3.5412333
0.77334666 2.7547333 3.5405998
0.789195 2.751375 3.5404501
0.93893999 2.7471001 3.5401001
2.26965 2.7528501 3.5401499
2.3024001 2.7481999 3.5408001
2.3385999 2.7474 3.5402999
2.4001 2.7562001 3.5401001
2.4330001 2.7528999 3.5404999
2.6111002 2.7483001 3.5401502
2.72525 2.7540998 3.5409
2.753 2.7426 3.5402
2.8106999 2.7494001 3.5401001
2.8232999 2.7567 3.5404
2.855 2.7525001 3.54
2.8624001 2.7558999 3.54
2.89185 2.7519498 3.54055
2.9117999 2.7537999 3.5401001
-0.028088333 2.7706668 3.5490835
-0.01439748 2.7709801 3.5472801
0.0111755 2.7783499 3.54615
0.037829001 2.7748001 3.5469
0.10135 2.7723999 3.5458
0.22682999 2.7644999 3.54285
0.24063 2.7679 3.5413001
0.26634428 2.7720716 3.5432856
0.28965747 2.77175 3.5442374
0.31235334 2.7665167 3.5431168
0.32525 2.7767 3.5439
0.34694248 2.7688 3.542125
0.37056202 2.7663798 3.5425999
0.380945 2.7674999 3.5414
0.51424164 2.7657001 3.5418835
0.52732599 2.7729402 3.5420003
0.55313003 2.7704201 3.54076
0.57184285 2.7735429 3.5416713
0.59038502 2.7732501 3.5408001
0.61439002 2.7698002 3.5408401
0.63076335 2.7659333 3.5409
0.6499263 2.7698252 3.5407124
0.66871667 2.7690001 3.5408001
0.68961006 2.7692199 3.5408401
0.72604424 2.7658145 3.5408146
0.75284398 2.7728801 3.5409198
0.76324499 2.7758999 3.5411501
0.78540999 2.7671335 3.5403664
0.80109 2.7606001 3.5407
0.87133998 2.779 3.5404999
0.88863504 2.763 3.54005
1.8389 2.7778001 3.5406001
1.8918 2.7795 3.5401001
2.0144 2.7702 3.5413001
2.1386001 2.776 3.5402999
2.1422002 2.7724333 3.5421667
2.3089001 2.7692001 3.5402
2.3541999 2.7711 3.5404501
2.3782001 2.7611001 3.5409
2.5654998 2.7632499 3.5402999
2.625 2.7746999 3.5409
2.6858001 2.7730999 3.54
2.7052 2.7681999 3.5402
2.7224 2.7709 3.5402999
2.7690001 2.77795 3.5409
2.7944999 2.7658749 3.5403249
2.8110499 2.7613499 3.5402
2.8323667 2.7701666 3.5403001
2.8636 2.7663 3.5406001
2.8908999 2.7737 3.5409999
2.9140999 2.7758334 3.5409667
0.01061 2.7853 3.5467
0.038540497 2.78795 3.54655
0.046938669 2.7907667 3.5459335
0.23857 2.7918501 3.5436499
0.257195 2.7876 3.5433002
0.26070499 2.7845001 3.5455
0.2891475 2.7970247 3.5451748
0.31558499 2.7869835 3.5435164
0.32626599 2.7867999 3.5431397
0.348315 2.7962 3.54405
0.36276665 2.7834332 3.5445335
0.38138503 2.7871499 3.5414
0.51166993 2.7855003 3.5411999
0.53043503 2.7922165 3.5421333
0.55150998 2.7901199 3.5412998
0.57111001 2.7905874 3.5414746
0.59060627 2.7909999 3.5412624
0.61234337 2.7877333 3.5410664
0.62556601 2.7938399 3.54076
0.64812499 2.7916751 3.5406749
0.66887498 2.7909 3.5414832
0.69479001 2.7860498 3.5401499
0.70503998 2.7902501 3.5409248
0.72159499 2.7961001 3.54175
0.75098342 2.7923334 3.5409667
0.77464503 2.7925 3.5407751
0.78885752 2.7885752 3.5412498
0.80124998 2.7990999 3.5409
0.83108997 2.7918665 3.5404332
0.84441328 2.7919998 3.5406666
0.86321998 2.7990999 3.54
0.88871002 2.7918999 3.5402
0.91130745 2.79005 3.5401752
0.95550001 2.7888999 3.5402999
0.98800004 2.7843499 3.54035
1.9289 2.7916999 3.5401001
2.109 2.7925999 3.5407
2.13835 2.7885499 3.5402
2.1456001 2.7814 3.54
2.2572 2.7992001 3.5408001
2.2790999 2.7955 3.5404
2.2901001 2.7899001 3.5402999
2.3281002 2.7894001 3.5404
2.3443 2.7916999 3.54
2.3663001 2.7909999 3.5402999
2.5162001 2.793 3.5406001
2.5311 2.7849 3.5406001
2.5453999 2.7999001 3.54
2.5757 2.786 3.5407
2.6201 2.7992001 3.5401001
2.6435001 2.7867999 3.5402999
2.6623001 2.7914 3.5407
2.6835251 2.7906001 3.5403252
2.7138748 2.7904501 3.5405998
2.7272666 2.7958 3.5411003
2.7481668 2.7918665 3.5405998
2.7872334 2.7885666 3.5404665
2.8095999 2.7909 3.5405002
2.8246 2.7878802 3.54038
2.8503001 2.7858 3.5409
2.8731198 2.79408 3.54054
2.8899 2.7842498 3.54035
2.9072001 2.7809999 3.5408001
-0.04284 2.8162 3.5418999
-0.030423999 2.8156998 3.5494668
-0.010501999 2.812175 3.5496001
0.032912999 2.8119001 3.54425
0.055610999 2.8153 3.5479
0.069477499 2.8127749 3.545625
0.085427001 2.8165998 3.5451999
0.10311 2.8166001 3.5453
0.23085332 2.8129666 3.5434668
0.24648 2.81655 3.5443001
0.27844 2.8057001 3.5444
0.28929287 2.8106143 3.5432429
0.35684666 2.8065002 3.5433998
0.36714801 2.8146799 3.5430999
0.51547146 2.808557 3.5427997
0.52623999 2.8092499 3.54265
0.55054712 2.8125145 3.5415571
0.57571334 2.8097999 3.5415332
0.58741426 2.8113573 3.5414569
0.60078001 2.8092499 3.54075
0.63094997 2.8099699 3.5408199
0.64741665 2.81145 3.5406332
0.66825825 2.8099499 3.5406501
0.69013 2.8093252 3.5412877
0.7090683 2.8099499 3.5407164
0.72292 2.8034 3.5402
0.74851805 2.8103399 3.54076
0.77173996 2.8105249 3.5406499
0.78643 2.8091002 3.54075
0.807455 2.8138747 3.540725
0.83301336 2.8130167 3.5406835
0.85403001 2.8111 3.5408001
0.87170005 2.8125501 3.5401502
0.88938999 2.8128998 3.5407333
0.91816998 2.8160501 3.5404
0.96368003 2.8155 3.5406001
1.8422 2.8025999 3.54
1.8796999 2.8166001 3.5404999
2.0282598 2.81024 3.54036
2.0537 2.8146 3.5408001
2.1075001 2.81215 3.5405998
2.1344664 2.8143332 3.5400667
2.145 2.803 3.5401001
2.2479 2.8090999 3.5402999
2.2729001 2.81675 3.54
2.28896 2.8118601 3.5404
2.3110001 2.8180001 3.5401001
2.3303001 2.8119667 3.5410664
2.3436 2.8143501 3.5401001
2.3875 2.8001499 3.5404
2.4637001 2.8096001 3.5401001
2.4988999 2.8048 3.54
2.55615 2.8091002 3.5402
2.5734 2.8127663 3.5407667
