# .PCD v0.7 - Point Cloud Data file format
VERSION 0.7
FIELDS x y z
SIZE 4 4 4
TYPE F F F
COUNT 1 1 1
WIDTH 1499
HEIGHT 1
VIEWPOINT 0 0 0 1 0 0 0
POINTS 1499
DATA ascii
-0.041393004 2.0291715 1.4515073
-0.039462999 2.0330999 1.4444
-0.041909479 2.0498872 1.4508871
-0.039864663 2.0541666 1.4483
-0.04201477 2.0701501 1.450454
-0.039388001 2.0625 1.4547
-0.042001903 2.0898199 1.4503751
-0.039939001 2.0839 1.4463
-0.041932315 2.1109874 1.4491313
-0.042032253 2.1296332 1.4503499
-0.042364798 2.1478534 1.4513534
-0.0392612 2.1516402 1.4497399
-0.042321302 2.16975 1.4507098
-0.042295132 2.1893868 1.4510261
-0.042569891 2.2109776 1.4521166
-0.042810708 2.2297666 1.4482416
-0.043183766 2.2508705 1.4502001
-0.043697104 2.270155 1.4501449
-0.043558683 2.2900736 1.450758
-0.043013476 2.3097842 1.4501441
-0.043193307 2.3297825 1.4503726
-0.043264482 2.3518713 1.4483477
-0.043516949 2.3694108 1.4489316
-0.043435771 2.390554 1.4500884
-0.044170357 2.4116049 1.4505202
-0.043793999 2.4306283 1.4507238
-0.044054374 2.4509289 1.4507293
-0.044306107 2.4678249 1.449625
-0.044009224 2.4890168 1.4490609
-0.043950632 2.5095375 1.4492106
-0.043823186 2.5295858 1.4507856
-0.044497408 2.5503409 1.4501681
-0.044274878 2.5695875 1.4504958
-0.045527715 2.5898521 1.449
-0.045781471 2.6090314 1.4498053
-0.045533601 2.62848 1.44828
-0.044854842 2.6512923 1.4493999
-0.036231998 2.6419001 1.4532
-0.047091722 2.6697271 1.4505228
-0.045695111 2.6908946 1.4491556
-0.046616584 2.709341 1.4480647
-0.047376674 2.7325335 1.4496801
-0.046740323 2.7494214 1.4474946
-0.046338394 2.7708223 1.4498
-0.046605501 2.7898951 1.4491727
-0.046173472 2.8090684 1.4499843
-0.047464948 2.8308051 1.4504946
-0.046844393 2.8491108 1.4492167
-0.048193645 2.868706 1.4494352
-0.047513947 2.8891668 1.4484277
-0.048184063 2.9104118 1.4508177
-0.048693001 2.9309387 1.4497888
-0.048327088 2.9501164 1.4484166
-0.048028577 2.9696736 1.4480631
-0.048531178 2.9918473 1.4499825
-0.049011655 3.01038 1.44919
-0.048707128 3.0294313 1.4497125
-0.048888829 3.0515501 1.4522943
-0.048301004 3.0683534 1.4506068
-0.049488671 3.0919333 1.4472833
-0.049037397 3.1098936 1.4479066
-0.048299525 3.1300633 1.4489685
-0.049609635 3.151664 1.4482909
-0.049077876 3.1702876 1.4489375
-0.048536528 3.1903121 1.4502176
-0.049111802 3.2109666 1.4517133
-0.048005667 3.2255919 1.4516916
0.034525465 0.67547607 1.4690133
0.013286533 0.69094539 1.4713134
0.023323223 0.68347555 1.4716001
-0.010559867 1.5968666 1.4663668
0.0098739332 1.5946332 1.4655333
-0.041797996 1.6115143 1.4705046
-0.037675623 1.6053627 1.471225
-0.041667536 1.6288199 1.4701332
-0.038912401 1.6275799 1.4656999
-0.041463267 1.6492534 1.4684067
-0.039488833 1.6544 1.4722333
-0.040801711 1.67115 1.4703786
-0.039366428 1.6677142 1.4693857
-0.041253548 1.6890299 1.47168
-0.039121002 1.6971999 1.4646001
-0.041476194 1.7096283 1.4721855
-0.039255999 1.7090249 1.4673001
-0.041042123 1.7298794 1.4709457
-0.039269332 1.7255335 1.4686832
-0.041152667 1.7490267 1.4724067
-0.039583147 1.7503713 1.4654857
-0.041181881 1.7665354 1.4692
-0.039550144 1.7749144 1.4725858
-0.040960893 1.7910722 1.469061
-0.039191429 1.7846286 1.4710714
-0.040801845 1.8098308 1.4713614
-0.039196398 1.81143 1.47031
-0.041243527 1.8311532 1.4728823
-0.038720731 1.8265274 1.4657726
-0.041048903 1.8524901 1.4683901
-0.038564887 1.848739 1.4694167
-0.041063238 1.8686705 1.4703588
-0.039208569 1.8703572 1.4682429
-0.040814359 1.8917236 1.4710588
-0.039154168 1.8868999 1.46455
-0.041690905 1.9099751 1.47008
-0.039159 1.9123667 1.4709333
-0.041790135 1.9300134 1.4708867
-0.039289754 1.9271001 1.469475
-0.041961886 1.9488779 1.4703946
-0.039668333 1.9570333 1.4755001
-0.041490003 1.9705415 1.4687166
-0.039453499 1.967075 1.474375
-0.041338161 1.9889119 1.470556
-0.039637499 1.99655 1.46855
-0.04130736 2.0088291 1.4682589
-0.0396358 2.01072 1.4731799
-0.041321829 2.0316331 1.4681388
-0.039252602 2.0301201 1.47624
-0.041407201 2.05144 1.4699099
-0.039546333 2.0445001 1.4695667
-0.042455252 2.06932 1.47111
-0.042478625 2.0900724 1.4696343
-0.03965367 2.0943999 1.4675001
-0.042511709 2.1112189 1.4690857
-0.039092198 2.1052599 1.4707401
-0.042775132 2.1294739 1.4698347
-0.039978001 2.1259 1.4709001
-0.042412765 2.1491764 1.4697284
-0.039608002 2.141 1.4716001
-0.042640839 2.1701839 1.47004
-0.042665783 2.1913393 1.4701999
-0.039372001 2.1868999 1.4686
-0.043011636 2.2105107 1.4706105
-0.042764913 2.2307131 1.4696739
-0.042737219 2.2491522 1.470387
-0.043051954 2.2696869 1.4696825
-0.042262096 2.2891333 1.4692236
-0.039786499 2.28915 1.4711001
-0.042556457 2.3101051 1.4698501
-0.039675001 2.3013999 1.4634
-0.042972453 2.33114 1.470185
-0.039983999 2.3382001 1.4694999
-0.043065961 2.3504751 1.4695001
-0.04323123 2.3704305 1.4697577
-0.043805994 2.3909202 1.47069
-0.043880623 2.4107955 1.4692049
-0.043440454 2.4305701 1.468805
-0.043296319 2.4500103 1.4713157
-0.044076748 2.4712346 1.4700085
-0.043562654 2.4908001 1.4709609
-0.044330049 2.5086758 1.4691001
-0.044983946 2.5286629 1.4688528
-0.044937577 2.5496926 1.4699848
-0.044939592 2.5703816 1.4698682
-0.045486666 2.5899 1.4706668
-0.044829916 2.6087682 1.4694121
-0.045169171 2.6263168 1.46775
-0.033983 2.6204 1.4713
-0.018285999 2.6226001 1.4777
-0.045127459 2.6509001 1.4688615
-0.041394502 2.6620998 1.4718751
-0.020199999 2.6652 1.4791
-0.0072136796 2.6647801 1.4734999
0.003684731 2.6721001 1.4705812
0.0051766499 2.6908572 1.4739857
0.0029858742 2.7053287 1.4731286
-0.044713002 2.7379999 1.472
-0.046301715 2.7501047 1.4704238
-0.046674751 2.77038 1.4691448
-0.046552002 2.7898333 1.4689499
-0.046331644 2.8106 1.4690999
-0.047298495 2.8295062 1.4720687
-0.047237739 2.8497159 1.4704421
-0.047500618 2.8697765 1.4703287
-0.047819473 2.8879368 1.4699737
-0.048678003 2.9096262 1.4697632
-0.048072807 2.9299049 1.4693619
-0.048035875 2.9495373 1.4696813
-0.048295431 2.9694617 1.4700143
-0.047618665 2.9909532 1.4697
-0.048287667 3.0113466 1.47284
-0.049149316 3.0302525 1.4682159
-0.049624473 3.0516939 1.4684352
-0.04946889 3.071111 1.4689223
-0.048979815 3.090219 1.4677125
-0.049365252 3.1103063 1.4700062
-0.049145803 3.1317866 1.4682868
-0.049056403 3.1503997 1.4711601
-0.049287524 3.1695764 1.4701048
-0.048548918 3.1885166 1.4710999
-0.049529277 3.209564 1.4704182
-0.047695003 3.2258751 1.46995
0.033798683 0.67495525 1.490358
0.011864065 0.69030529 1.4899529
0.024034668 0.68231219 1.4902333
-0.042168066 1.6106 1.4894665
-0.03848343 1.6072 1.4931142
-0.0419356 1.6295931 1.4889787
-0.03959775 1.6243001 1.4895501
-0.041375734 1.6493001 1.4913105
-0.039438803 1.6551399 1.48792
-0.041228529 1.6706532 1.4883399
-0.039244998 1.6714998 1.4881998
-0.041377146 1.6893299 1.49049
-0.039919499 1.6947501 1.48515
-0.041088 1.7104694 1.4916769
-0.039223887 1.7084556 1.4882998
-0.041381143 1.7293644 1.4902713
-0.039680429 1.7318429 1.4908571
-0.04136195 1.7496551 1.4902848
-0.039346803 1.7538401 1.49164
-0.041152716 1.771593 1.4923285
-0.039308939 1.7697438 1.4886061
-0.041279539 1.7901922 1.4896077
-0.039099168 1.7899166 1.4842501
-0.041224997 1.8095307 1.489423
-0.038904402 1.81478 1.4869
-0.04105483 1.8296446 1.4893945
-0.038999442 1.8297223 1.4904889
-0.041430231 1.8504461 1.4912692
-0.038979299 1.85166 1.4891801
-0.041589502 1.8700126 1.4911562
-0.039591499 1.8692 1.4915999
-0.041198522 1.8909842 1.4898001
-0.039298669 1.8877779 1.4884777
-0.041143529 1.9100589 1.4909
-0.0393424 1.91246 1.4862601
-0.041290998 1.9303708 1.4882293
-0.0393635 1.9373 1.48605
-0.041073442 1.9494249 1.4901812
-0.039102752 1.95135 1.48655
-0.041528378 1.9705905 1.4899335
-0.041547798 1.98946 1.4943799
-0.038875166 1.9950833 1.4867166
-0.041487057 2.0116835 1.4901834
-0.039283 2.0094399 1.48682
-0.042105913 2.0305171 1.4907956
-0.039826997 2.0275002 1.48465
-0.041831203 2.0486999 1.488775
-0.039326336 2.0464666 1.4865001
-0.042324521 2.0699117 1.4894922
-0.042391639 2.0911839 1.4896158
-0.039827 2.0892999 1.4864334
-0.042580854 2.1103396 1.4902852
-0.039887 2.1022 1.4839
-0.041884284 2.1297598 1.4907838
-0.039739002 2.1393001 1.4946001
-0.042705473 2.1509759 1.4892522
-0.042131454 2.169205 1.48931
-0.039561 2.17225 1.4865
-0.042440582 2.1895211 1.4882579
-0.039409 2.197 1.4874001
-0.042053998 2.208843 1.4912144
-0.042597499 2.2295876 1.4918813
-0.039302498 2.2341499 1.49345
-0.042545777 2.250674 1.4907478
-0.039079502 2.2433 1.4985
-0.04337842 2.2707655 1.4902421
-0.042752683 2.2884092 1.4889045
-0.043311238 2.3100286 1.4873905
-0.04287938 2.3298097 1.4887999
-0.042969361 2.3500955 1.4911364
-0.043720655 2.3696218 1.4901263
-0.043744002 2.3906999 1.4908884
-0.043854956 2.4098589 1.4895592
-0.044097085 2.4286292 1.489096
-0.043876398 2.4490502 1.4887202
-0.044045858 2.4680145 1.4893286
-0.044332225 2.489527 1.4906272
-0.044637498 2.5109935 1.4907875
-0.044539653 2.5299911 1.489774
-0.044861585 2.5508208 1.4900252
-0.044583585 2.5686646 1.4892706
-0.045653507 2.5900609 1.4904499
-0.044791099 2.6047099 1.4908601
-0.045329936 2.6303813 1.4915
-0.0456702 2.6496956 1.4894999
-0.046232 2.6605 1.4958334
-0.0387276 2.6656399 1.4894
0.0054721669 2.6730373 1.4899436
0.0059225229 2.6903889 1.4890666
0.0035764803 2.7045777 1.4910666
-0.046647001 2.7377002 1.4963666
-0.04620437 2.7486155 1.4904104
-0.046748638 2.7692771 1.4910411
-0.046155047 2.7901695 1.4896606
-0.046240199 2.8092201 1.48888
-0.047661565 2.8319874 1.4906375
-0.047332823 2.8492706 1.4883587
-0.048538763 2.8708472 1.4903588
-0.0479494 2.8879933 1.4906064
-0.048200052 2.9097822 1.4908645
-0.048214667 2.9307475 1.4910097
-0.048069332 2.9505415 1.4894542
-0.047932707 2.9702055 1.4891647
-0.04814443 2.9897211 1.4906501
-0.049802791 3.009568 1.4899211
-0.04858255 3.028218 1.489682
-0.04851437 3.0493474 1.4903316
-0.049370114 3.0688667 1.4906834
-0.050499789 3.0897002 1.4893786
-0.048957065 3.1088066 1.4877799
-0.049115252 3.1275249 1.4868
-0.048802 3.1465685 1.4921688
-0.049632356 3.1688764 1.4899411
-0.050179191 3.1893532 1.4927136
-0.049048763 3.2086539 1.4896922
-0.049290109 3.230689 1.4868222
-0.049058545 3.2495089 1.4928635
-0.049627248 3.27315 1.4917625
-0.048929852 3.2844002 1.4924428
-0.047898144 3.309757 1.4921714
-0.049328819 3.329309 1.4930363
0.031937253 0.67563659 1.5099334
0.011705252 0.69014347 1.5106044
0.023977876 0.6825 1.5083375
-0.023125 1.5991 1.5154001
-0.0112129 1.597075 1.511325
0.019997999 1.5939 1.508
-0.041201733 1.6123265 1.5105132
-0.037910603 1.60818 1.5081
-0.04226036 1.6303455 1.5096909
-0.0396415 1.6366 1.51755
-0.041188452 1.6505651 1.51114
-0.039786 1.654 1.5092
-0.041050948 1.6690315 1.5116736
-0.039553601 1.67272 1.5048
-0.041338682 1.6899136 1.51045
-0.039256666 1.6886109 1.5086666
-0.041246776 1.7083726 1.5105363
-0.038804401 1.7113199 1.5080999
-0.040980812 1.7274874 1.509125
-0.039427198 1.7337 1.50934
-0.040776394 1.7510133 1.5093801
-0.039189856 1.7441 1.5118572
-0.040840726 1.7708455 1.5101546
-0.039011374 1.7676625 1.5136375
-0.0413788 1.7879002 1.5088151
-0.038979374 1.7938499 1.5128751
-0.041478869 1.8093783 1.5060564
-0.039266251 1.8118374 1.5171875
-0.041166998 1.82862 1.510075
-0.039122 1.830375 1.5116
-0.041220702 1.8499501 1.5098449
-0.039574999 1.8493 1.5025001
-0.041394666 1.8677669 1.5094402
-0.039261334 1.8748833 1.5134166
-0.041694064 1.8885599 1.5101666
-0.039375748 1.8928001 1.5098749
-0.04135365 1.91063 1.5099548
-0.039735999 1.9086 1.5123167
-0.041657548 1.929855 1.5079651
-0.041572828 1.9493349 1.5096173
-0.039677002 1.9437 1.5197999
-0.041357599 1.9698648 1.5092099
-0.041663811 1.9903193 1.5103477
-0.039678998 1.9802999 1.5025001
-0.04181144 2.0098112 1.5112889
-0.039483 2.0121 1.5037501
-0.04107618 2.0288296 1.510753
-0.039356001 2.0341501 1.5115499
-0.042016521 2.0507696 1.5089477
-0.039401669 2.0460999 1.5019001
-0.041721869 2.0700321 1.5113273
-0.039271668 2.0688334 1.5105
-0.042242002 2.0890784 1.5088784
-0.042316865 2.1097438 1.5090306
-0.042348385 2.1306 1.511638
-0.043099381 2.1504047 1.510857
-0.042156801 2.1698122 1.5092158
-0.042966481 2.1896043 1.5106825
-0.039210498 2.1868 1.5101
-0.0434632 2.2102842 1.5099118
-0.043347131 2.2305567 1.5092957
-0.042958453 2.2499003 1.5097501
-0.043357093 2.2697575 1.5107477
-0.043444581 2.2914104 1.5105791
-0.04354842 2.3099372 1.5099751
-0.042767338 2.3289738 1.5106959
-0.04339261 2.3506391 1.5094696
-0.043709088 2.3711636 1.5092907
-0.043058287 2.3907433 1.5103999
-0.043772697 2.411587 1.5108521
-0.043724362 2.4309866 1.5096772
-0.043500524 2.4493082 1.5090121
-0.044307884 2.4689612 1.5107808
-0.045029912 2.4893816 1.5086226
-0.044412259 2.5103476 1.5100211
-0.044035845 2.5289798 1.5097902
-0.044575296 2.5490501 1.5110301
-0.045287699 2.5702519 1.5099223
-0.045118138 2.5896318 1.51185
-0.043082248 2.6089749 1.5110625
-0.036949001 2.6036 1.5036
-0.045773089 2.6297047 1.5087456
-0.045836411 2.650068 1.5101136
-0.044174079 2.6651249 1.5103416
-0.0042802002 2.6809001 1.5182
-0.047864266 2.7314465 1.5131133
-0.046843607 2.7503998 1.5096723
-0.046811666 2.7705612 1.5101389
-0.046681296 2.7910395 1.5098259
-0.045876939 2.8085935 1.5091938
-0.047306005 2.8317738 1.5100391
-0.047359452 2.8498726 1.5103137
-0.047884449 2.8720887 1.5097222
-0.048712589 2.8912001 1.5083354
-0.048258282 2.9095333 1.5105335
-0.048783556 2.9303279 1.5102278
-0.048347764 2.9493001 1.5109096
-0.048730407 2.9704139 1.5107545
-0.048812535 2.9891131 1.5112667
-0.049735326 3.0100722 1.5095444
-0.049440231 3.0318387 1.5107539
-0.048728336 3.0495336 1.5101267
-0.048947796 3.0690532 1.5126868
-0.049142316 3.0907104 1.5087897
-0.048967201 3.1087067 1.5104133
-0.048661556 3.1310887 1.5090946
-0.049252916 3.1498916 1.5109501
-0.04943727 3.1714201 1.5106601
-0.048211642 3.1889572 1.5078787
-0.050030123 3.210006 1.5102875
-0.050026547 3.2296913 1.5086727
-0.048824996 3.24845 1.5117083
-0.050449274 3.2716277 1.5105636
-0.049021278 3.2899446 1.5119222
-0.049606215 3.3114858 1.51085
-0.048492108 3.3257666 1.5117445
0.029929373 0.67681503 1.5279813
0.0095106149 0.69036049 1.5306751
0.022798249 0.68225497 1.5293999
0.0176 1.5932666 1.5261999
0.020571999 1.5923001 1.5391001
-0.04142765 1.610725 1.5309851
-0.039376199 1.6129 1.53004
-0.041336045 1.6291045 1.5306636
-0.039582666 1.6329333 1.5274334
-0.041623265 1.6500736 1.5292736
-0.039436668 1.6446333 1.5324999
-0.041201498 1.6706499 1.5305667
-0.038899668 1.6694224 1.5277667
-0.04119375 1.6906201 1.531245
-0.039357334 1.6960334 1.5336
-0.041330233 1.7112153 1.5300307
-0.038895112 1.708089 1.5306889
-0.041470997 1.729479 1.5295002
-0.039678335 1.732 1.5264
-0.041359056 1.7485833 1.5317999
-0.039220624 1.7530376 1.5276
-0.041061331 1.7691334 1.5273557
-0.038817625 1.7691875 1.5282123
-0.040955696 1.7905229 1.5270922
-0.038803633 1.7908546 1.5339
-0.041177418 1.8102666 1.5289332
-0.039223712 1.8083428 1.5327142
-0.041580569 1.8328573 1.530219
-0.039201599 1.8278799 1.5319201
-0.041223355 1.84834 1.5294901
-0.039121781 1.8548557 1.5291222
-0.040865436 1.8706187 1.5307249
-0.03915675 1.86965 1.5307
-0.041254599 1.8888533 1.5297199
-0.038939372 1.8895376 1.5294249
-0.040871754 1.9111201 1.529525
-0.039660998 1.9021 1.5272501
-0.04162911 1.9290445 1.5288222
-0.039217401 1.9281601 1.5287399
-0.04170559 1.9498593 1.5308
-0.041196793 1.9701897 1.5269947
-0.039433427 1.9694716 1.5343143
-0.041932907 1.9904665 1.5292095
-0.039808501 1.9878 1.5327001
-0.04167027 2.009654 1.5285363
-0.039465502 2.0086 1.5288
-0.041555446 2.02982 1.5291698
-0.039446499 2.0269752 1.528375
-0.041756421 2.0501587 1.5289942
-0.041902762 2.0696523 1.5317667
-0.041989334 2.0920238 1.5285665
-0.039710999 2.0911 1.5341001
-0.04214805 2.110518 1.5302727
-0.042303491 2.1291375 1.5309167
-0.042609502 2.1498702 1.5305498
-0.042567734 2.1702433 1.5295435
-0.042993054 2.1899276 1.5292277
-0.042777617 2.2091055 1.5317999
-0.043205611 2.2288826 1.5283564
-0.043285005 2.2489653 1.5304345
-0.04360171 2.2707915 1.5280085
-0.042803951 2.290719 1.5293047
-0.043327745 2.3106849 1.5308901
-0.043212 2.3310912 1.5308825
-0.042987999 2.3502414 1.5299834
-0.043748781 2.3707891 1.5302813
-0.043719523 2.3897097 1.5288762
-0.043949727 2.4100134 1.5290864
-0.044278238 2.4304717 1.5296665
-0.043636665 2.4513001 1.531189
-0.043232828 2.470078 1.5299522
-0.043872129 2.4900377 1.5290374
-0.044493221 2.5104306 1.5307956
-0.044171348 2.5322883 1.5305588
-0.045267001 2.5506885 1.5307117
-0.045270387 2.5694888 1.5310889
-0.045952462 2.5895545 1.5306683
-0.043908428 2.6066856 1.5302641
-0.036121249 2.61045 1.5287751
-0.04644905 2.6314578 1.5296633
-0.045383792 2.6491635 1.5284474
-0.044278104 2.6689949 1.5291737
-0.039843999 2.6760001 1.5325
-0.045722336 2.7155666 1.5334333
-0.045959316 2.7316737 1.5303054
-0.046898957 2.7501318 1.5290729
-0.04651713 2.7693954 1.5307654
-0.046717949 2.7909157 1.5296947
-0.046650648 2.8109212 1.5305001
-0.046343409 2.8292468 1.5291647
-0.048245002 2.8494556 1.5313277
-0.048435796 2.8694201 1.5301558
-0.048483554 2.8916836 1.52955
-0.047886007 2.9112115 1.5291883
-0.048364636 2.9292581 1.5297265
-0.049254164 2.9506943 1.5321279
-0.049158134 2.9716928 1.5296066
-0.048024625 2.9898894 1.5299212
-0.048815735 3.0107999 1.529137
-0.04945647 3.0281 1.5281261
-0.049595792 3.0483639 1.5284786
-0.048612617 3.0687282 1.5302762
-0.04898347 3.0895176 1.5313411
-0.049017999 3.1091461 1.5298156
-0.049552567 3.1310213 1.5315071
-0.048526127 3.1490996 1.5288688
-0.049491689 3.1696942 1.529225
-0.049291316 3.1905155 1.5297999
-0.050294921 3.2102537 1.5272847
-0.049291555 3.2268224 1.528289
-0.049400453 3.2524545 1.5296909
-0.050344277 3.2727454 1.5324546
-0.049331136 3.2895665 1.5305532
-0.048718702 3.3097901 1.5274999
-0.04928714 3.3290143 1.5314857
0.032205127 0.67525434 1.5503185
0.0107084 0.69008756 1.5502416
0.021884624 0.68263996 1.5505251
-0.029897001 1.5997 1.5584
-0.0044089998 1.5957 1.5532
-0.041758779 1.6120359 1.5510714
-0.038757998 1.6093668 1.5581332
-0.041337624 1.6295667 1.5496459
-0.039088503 1.6357499 1.552725
-0.041096315 1.6498226 1.5495547
-0.039044499 1.6499 1.5510834
-0.040882871 1.6718866 1.5487065
-0.03912 1.6683373 1.5495499
-0.040934201 1.69121 1.5466
-0.039345998 1.6876668 1.5486335
-0.041507334 1.7105904 1.5496095
-0.039291251 1.707725 1.5512999
-0.041189175 1.7301822 1.5496881
-0.039370999 1.7237334 1.5521668
-0.041448601 1.7495449 1.5513798
-0.039791249 1.7497749 1.5435001
-0.040945303 1.771155 1.5519302
-0.039572082 1.7683582 1.5486417
-0.04108293 1.79126 1.5497802
-0.039162401 1.7868799 1.5497801
-0.041213267 1.8106465 1.5486068
-0.038535602 1.80474 1.55048
-0.041581284 1.8294855 1.5498523
-0.039960999 1.8355 1.5477999
-0.041424934 1.8504597 1.5489534
-0.039105166 1.85105 1.55305
-0.0415763 1.8697102 1.5518949
-0.038936399 1.87262 1.5515001
-0.041291278 1.8887111 1.5479112
-0.039075911 1.8932818 1.5495273
-0.041273084 1.9094205 1.5515833
-0.038536999 1.9023 1.5549001
-0.041111939 1.9288765 1.5515941
-0.039485145 1.9308428 1.5459999
-0.041181833 1.9482666 1.5494334
-0.039411638 1.9516454 1.5499183
-0.041491099 1.9698099 1.5502001
-0.041891832 1.99005 1.5516833
-0.039627999 1.9875 1.551
-0.041465349 2.0102868 1.5489043
-0.039267 2.0149 1.5497
-0.041902654 2.0298426 1.5503309
-0.042027637 2.0488949 1.550621
-0.042476524 2.0700347 1.5495609
-0.039368 2.0755 1.5427999
-0.041995116 2.0913706 1.5494647
-0.043306794 2.1095791 1.5502948
-0.042453825 2.1313262 1.5512
-0.042799741 2.1502929 1.5498592
-0.043404702 2.170083 1.5490917
-0.042951547 2.189775 1.549
-0.042566843 2.2094641 1.550552
-0.042284597 2.2306151 1.551005
-0.043211952 2.2506251 1.5510747
-0.043457221 2.2695112 1.5497665
-0.039781 2.27 1.5452
-0.04324621 2.2893167 1.5512333
-0.043242775 2.3103819 1.5488454
-0.042485181 2.3307683 1.5502774
-0.042998001 2.3497095 1.5499809
-0.043711517 2.369776 1.5510954
-0.044158388 2.3900564 1.5501651
-0.043724757 2.4104714 1.5494047
-0.044702336 2.4305835 1.5481889
-0.044462372 2.4491158 1.5494946
-0.044076774 2.4704275 1.5495048
-0.044050004 2.4898653 1.5499436
-0.044693001 2.5104251 1.5501099
-0.044583589 2.5284741 1.5488852
-0.044947352 2.550508 1.5500242
-0.04474619 2.5699098 1.5492713
-0.045343176 2.5891175 1.549347
-0.044659309 2.6093726 1.5510846
-0.037469666 2.6185668 1.5489668
-0.044466335 2.6315334 1.5498732
-0.045870628 2.6497207 1.5487
-0.045808293 2.6701262 1.5503742
-0.045490529 2.6896524 1.548679
-0.045902796 2.710175 1.5499499
-0.046018153 2.7296891 1.5483211
-0.045924902 2.7500854 1.5493599
-0.046812687 2.7706771 1.5509636
-0.046209779 2.7897055 1.5492332
-0.047261547 2.8110547 1.5501137
-0.047711693 2.8300002 1.5483501
-0.047695909 2.8504498 1.5494591
-0.047813285 2.8700001 1.5514523
-0.04777905 2.88903 1.5518599
-0.047717243 2.9087 1.5506856
-0.048296556 2.9295502 1.55006
-0.049110763 2.9492824 1.549753
-0.048546713 2.968519 1.5487715
-0.048383143 2.9887569 1.5503714
-0.048596721 3.0108943 1.550589
-0.049120422 3.0301633 1.5501527
-0.049349919 3.05 1.5500706
-0.048421632 3.0698845 1.5505686
-0.049118582 3.0939248 1.5480083
-0.048994824 3.1105001 1.5503589
-0.049150433 3.1281788 1.5509357
-0.049425334 3.1491168 1.5509666
-0.048884571 3.1687927 1.5486213
-0.048963442 3.1901391 1.5476835
-0.050581533 3.2106383 1.5495384
-0.048483573 3.2289574 1.5495428
-0.049299765 3.251359 1.5501356
-0.0494406 3.2693799 1.5490401
-0.049711265 3.291167 1.55044
-0.048863053 3.3094687 1.5496157
-0.049746502 3.3269901 1.5490501
0.019414 0.67978001 1.5688
0.032332607 0.67469031 1.5687608
-0.00032507 0.69718999 1.5729001
0.0089253392 0.69054836 1.5720249
0.022093751 0.68118 1.571175
-0.0011011501 1.59535 1.56815
0.0091025 1.5934 1.5609
-0.04122236 1.61075 1.5688502
-0.037204999 1.6068199 1.5710001
-0.041512735 1.6284631 1.5707316
-0.038965747 1.630475 1.5720749
-0.041217733 1.6499933 1.5713934
-0.038852166 1.6489167 1.5707
-0.0415975 1.6691334 1.5703501
-0.039345801 1.6712599 1.5672801
-0.041261457 1.6912682 1.5730454
-0.038823333 1.6862167 1.5647501
-0.041462939 1.7104133 1.5686532
-0.039557833 1.7079 1.5666333
-0.04148747 1.7294468 1.5705532
-0.038974799 1.7320801 1.5663
-0.041277356 1.7493961 1.5702041
-0.039033666 1.7585 1.5665666
-0.040674888 1.7710778 1.5733111
-0.039128799 1.7708199 1.56857
-0.041170314 1.7904689 1.5691311
-0.039636001 1.7876334 1.5690666
-0.041200668 1.8088945 1.5674944
-0.039045848 1.8100387 1.5736922
-0.040682498 1.8316643 1.5676929
-0.039386284 1.8286713 1.5739143
-0.040757816 1.8468182 1.5686818
-0.039295182 1.8504637 1.5701817
-0.041253589 1.8719413 1.5704529
-0.039294284 1.8660429 1.5673857
-0.041493941 1.8900125 1.57285
-0.039192375 1.8913627 1.5694751
-0.041177634 1.9102683 1.5711843
-0.041910741 1.9303442 1.5688593
-0.040812273 1.9519223 1.5702668
-0.039459001 1.9445667 1.5763668
-0.04186992 1.9695625 1.5699959
-0.039845999 1.9763 1.5667
-0.041322753 1.9903648 1.569435
-0.039645333 1.9912 1.5673
-0.041546948 2.0097277 1.5701333
-0.0396735 2.0074501 1.5782499
-0.042043805 2.0297523 1.5711524
-0.042085439 2.0513215 1.5698957
-0.038412001 2.0534999 1.5604
-0.042332143 2.0695858 1.5695096
-0.043107454 2.0886953 1.5694228
-0.043146092 2.1108713 1.5686333
-0.03932 2.1122499 1.5717
-0.042647142 2.1301813 1.5694761
-0.042409502 2.1493716 1.5711857
-0.0396965 2.1554999 1.5639501
-0.042447109 2.169239 1.5712278
-0.043088581 2.1899483 1.5689931
-0.039336 2.1870999 1.5743999
-0.043371368 2.2102368 1.5698482
-0.043093666 2.2293715 1.5698524
-0.043032095 2.249429 1.5692811
-0.043019649 2.2685647 1.5697529
-0.043004606 2.2889252 1.57057
-0.043140735 2.3101346 1.5689522
-0.043534808 2.3304884 1.569723
-0.043867275 2.3504269 1.5689886
-0.043494817 2.3708544 1.5688229
-0.042966612 2.3896217 1.5694348
-0.043621738 2.4089894 1.5708317
-0.044078637 2.4305911 1.5714589
-0.043753177 2.4499044 1.5705001
-0.043880168 2.4695652 1.5708829
-0.04351538 2.4913049 1.5690905
-0.044121891 2.5100946 1.5683278
-0.044328593 2.5295317 1.5701137
-0.044704001 2.5492857 1.569557
-0.044924647 2.5690904 1.5696552
-0.045120731 2.5897727 1.5688636
-0.045050647 2.6118119 1.5698882
-0.044246603 2.6305299 1.5682499
-0.0396735 2.6237502 1.5718
-0.046080999 2.6492791 1.5711422
-0.045495186 2.6702547 1.5707363
-0.045998361 2.6907957 1.5711182
-0.046083234 2.7111578 1.5701461
-0.046448816 2.7296953 1.5702
-0.046502955 2.7496316 1.5696579
-0.047358654 2.7708154 1.570205
-0.04790337 2.7895842 1.5703948
-0.047117148 2.8095951 1.5708525
-0.047827721 2.8286862 1.5711727
-0.048311956 2.8508 1.5696048
-0.048102319 2.8676159 1.5702949
-0.047961481 2.889962 1.5691999
-0.048872333 2.9097946 1.5707444
-0.04921433 2.9297917 1.5701083
-0.048210889 2.9511442 1.5693927
-0.048054598 2.9703634 1.5698452
-0.047498945 2.9886262 1.5685948
-0.049531117 3.0104613 1.5688722
-0.049186669 3.0315065 1.5704001
-0.048259921 3.0477769 1.5692077
-0.048858624 3.0707159 1.5697948
-0.0490476 3.0899401 1.5666398
-0.048466373 3.1093061 1.5704249
-0.049053118 3.1293163 1.5699556
-0.049397841 3.1495543 1.5681307
-0.049326174 3.1710587 1.5707824
-0.050180402 3.1898131 1.57136
-0.049812 3.2119825 1.5697178
-0.049394879 3.2296193 1.5702564
-0.049858913 3.2498362 1.5710728
-0.048089776 3.2681777 1.5721221
-0.049503691 3.2900689 1.5700562
-0.049365312 3.3101189 1.5710812
-0.049467199 3.3277698 1.57322
0.033172872 0.67514622 1.5880376
-0.00072862004 0.69599497 1.59095
0.0090685412 0.68936872 1.5888236
0.023861833 0.68119335 1.5903832
-0.023992002 1.599 1.5852333
-0.041656949 1.611495 1.5882051
-0.036490373 1.6044248 1.5921249
-0.041092925 1.6325461 1.5901386
-0.039362855 1.6280571 1.5910999
-0.041548248 1.6509436 1.5881876
-0.03896914 1.6488571 1.5906143
-0.041248083 1.67 1.5875916
-0.039023694 1.6702924 1.5916538
-0.041274667 1.6900333 1.5900809
-0.039224498 1.691 1.5908
-0.041431122 1.7100124 1.5908126
-0.039338753 1.709625 1.58345
-0.0412075 1.7283937 1.5895875
-0.039048903 1.73018 1.59333
-0.040975597 1.7492334 1.5893266
-0.039318446 1.750011 1.5910778
-0.041161142 1.770707 1.5899785
-0.039382499 1.7673 1.58665
-0.041064873 1.789631 1.5894811
-0.039548445 1.7873557 1.5906889
-0.040828902 1.8085302 1.5906299
-0.039085004 1.8130771 1.5905845
-0.040869646 1.830207 1.5903285
-0.039466221 1.8291556 1.5886111
-0.041615251 1.8484142 1.5896251
-0.039183252 1.84855 1.58735
-0.041314356 1.8684177 1.5906117
-0.039005555 1.8742777 1.5857334
-0.041456908 1.8891549 1.5914546
-0.039296333 1.886 1.5879334
-0.041056279 1.9094889 1.5884168
-0.039512001 1.9076 1.5903333
-0.04141365 1.93004 1.5900251
-0.039765 1.9310501 1.5881
-0.041005775 1.9494555 1.5903833
-0.039258502 1.955225 1.5900249
-0.041435789 1.9694523 1.5879436
-0.039169997 1.9742399 1.5936601
-0.041410118 1.9898646 1.5914
-0.039556835 1.9890165 1.5870833
-0.042042043 2.0102544 1.5914547
-0.039590999 2.0072498 1.5817
-0.042699888 2.0297329 1.5898556
-0.042127732 2.0500264 1.5903399
-0.039110001 2.0537 1.5880001
-0.042147946 2.0696723 1.5923333
-0.039212834 2.0669334 1.5865332
-0.041960694 2.0902915 1.5899695
-0.039012332 2.0861666 1.5907
-0.042708918 2.108959 1.5911334
-0.038803998 2.11165 1.59465
-0.042376228 2.1295612 1.5901153
-0.039577998 2.1329 1.5908
-0.043088518 2.1495919 1.5895439
-0.043353833 2.1694555 1.5901
-0.04321941 2.1900046 1.5903546
-0.042908054 2.2098265 1.5909791
-0.039850999 2.2130001 1.5892
-0.042129692 2.2285345 1.5896269
-0.039574999 2.2331333 1.5928999
-0.043349385 2.2492383 1.5890694
-0.044222448 2.2712002 1.5880138
-0.042962193 2.2904248 1.5904062
-0.042657044 2.3098044 1.5892435
-0.038972002 2.3108001 1.5973001
-0.042588472 2.3315353 1.5887766
-0.038076796 2.3320198 1.5980999
-0.043124333 2.3507667 1.5885239
-0.038441334 2.3548667 1.5988334
-0.042873625 2.3687165 1.5880375
-0.039232001 2.3721333 1.5987
-0.043490231 2.3895588 1.5860586
-0.0389308 2.3908601 1.5965799
-0.043289799 2.4094002 1.58634
-0.037440497 2.4100502 1.5971832
-0.043591894 2.4296789 1.5881103
-0.03875443 2.4304142 1.5970999
-0.043669596 2.4508402 1.5888802
-0.038278665 2.4467666 1.5984999
-0.042796142 2.4692929 1.5870215
-0.037251752 2.4705124 1.5966125
-0.044871002 2.4902573 1.5817287
-0.037272099 2.48892 1.59424
-0.04442364 2.5099609 1.5900285
-0.039999001 2.5 1.5949
-0.044615995 2.5295098 1.5892954
-0.044311266 2.5497737 1.5891371
-0.045038197 2.5698199 1.5894802
-0.045226701 2.58918 1.5904249
-0.045185398 2.6104562 1.5897843
-0.043204475 2.6315632 1.5910579
-0.039361 2.625 1.581
-0.044696338 2.6493618 1.5900047
-0.04520883 2.6713889 1.5892277
-0.045199353 2.6899297 1.5904701
-0.045460116 2.7094779 1.5911001
-0.045608096 2.7281811 1.5912666
-0.046260878 2.7498798 1.5904279
-0.046674173 2.7698002 1.5895292
-0.046505552 2.7890148 1.589025
-0.046911355 2.8104949 1.58898
-0.046057995 2.8303812 1.5897313
-0.046875894 2.8499157 1.5910946
-0.047486849 2.8707404 1.591105
-0.047545001 2.8886552 1.5889599
-0.048830379 2.9089856 1.5906382
-0.047301713 2.9302287 1.5879072
-0.048297375 2.9510751 1.5902064
-0.049009286 2.9694645 1.5887072
-0.04838359 2.9897501 1.5896319
-0.049370617 3.0097952 1.5910857
-0.04930567 3.0299935 1.5894732
-0.048100073 3.0528569 1.5896285
-0.048615851 3.0731616 1.5900769
-0.049546707 3.0902586 1.5893178
-0.04918829 3.112057 1.5912502
-0.048832644 3.1305532 1.590153
-0.049555603 3.1501751 1.5902499
-0.049165599 3.1733298 1.5873101
-0.04994823 3.1925528 1.5912061
-0.049203862 3.2059572 1.5902144
-0.049705226 3.2268231 1.5923769
-0.050026529 3.2495868 1.5917132
-0.049807161 3.2695775 1.5900778
-0.050385691 3.290854 1.5921845
-0.049368858 3.3079145 1.5870143
-0.050797574 3.3232572 1.5877713
0.032659709 0.67398947 1.607646
-0.0019163281 0.69612998 1.6106701
0.012028233 0.68716288 1.609781
0.024835799 0.68189001 1.61282
-0.009400066 1.5956 1.6132332
0.0026717498 1.5939 1.6041501
-0.042259749 1.6112051 1.6105999
-0.036734998 1.6018 1.6083
-0.041626211 1.6306217 1.6109785
-0.039539374 1.6288624 1.6077249
-0.041600347 1.6493657 1.6105309
-0.0391315 1.6497 1.6065
-0.041906428 1.6699737 1.6096998
-0.039294001 1.6699834 1.6130166
-0.041621428 1.6884857 1.6077498
-0.039495569 1.6916715 1.6107857
-0.041690238 1.7097286 1.6093572
-0.039786503 1.70725 1.6166501
-0.041576531 1.7288667 1.6091399
-0.039608669 1.7320167 1.6098166
-0.041406363 1.7528908 1.6097999
-0.0391245 1.7464701 1.6121002
-0.041287851 1.7698618 1.6098238
-0.039282501 1.76695 1.6088833
-0.040750939 1.7912881 1.612553
-0.039324574 1.789343 1.6084573
-0.041202463 1.8116307 1.6063538
-0.039278626 1.8061874 1.610725
-0.040936269 1.8307065 1.6102867
-0.038755603 1.82803 1.6085999
-0.041368365 1.8507819 1.6110363
-0.039409373 1.8535874 1.6127125
-0.041634917 1.8695583 1.611075
-0.039290622 1.867875 1.6112624
-0.040995371 1.8911061 1.6098311
-0.039490003 1.8905749 1.6105751
-0.041295189 1.9101423 1.6096269
-0.039926998 1.9176 1.6102999
-0.04190262 1.9300667 1.6094958
-0.039717 1.925 1.6106
-0.041503947 1.9505113 1.6093278
-0.0392465 1.9545 1.61625
-0.041722003 1.9702097 1.6094571
-0.039907001 1.9698 1.6123
-0.042165428 1.9896144 1.6101379
-0.042326048 2.0109389 1.6102809
-0.041706346 2.03037 1.610025
-0.039518002 2.0342 1.61
-0.042088691 2.0498962 1.6110001
-0.039964002 2.0409999 1.6104
-0.042086005 2.0695713 1.6087619
-0.039875999 2.0709 1.6158
-0.042572662 2.0898943 1.6097221
-0.04273957 2.1090238 1.6104001
-0.039335001 2.1162 1.6131001
-0.042435609 2.1294479 1.6115258
-0.042918302 2.1507823 1.6093609
-0.043338154 2.1697347 1.6099347
-0.043167088 2.1887319 1.6102047
-0.042839188 2.2085187 1.6098001
-0.043055683 2.2298868 1.6096181
-0.043093801 2.250716 1.6096802
-0.042698611 2.2702346 1.6081479
-0.039464999 2.2651 1.6137
-0.042681284 2.2886324 1.6102
-0.038372334 2.2978666 1.6127167
-0.040330999 2.316 1.6109999
-0.037551448 2.3093951 1.6085298
-0.041267999 2.3362999 1.6026
-0.037960894 2.3302214 1.6098474
-0.040748499 2.342 1.6029
-0.038325351 2.350194 1.6104765
-0.040663332 2.3736668 1.61
-0.038663235 2.3696527 1.6111708
-0.041678887 2.3941336 1.6099442
-0.038340732 2.3896668 1.6086135
-0.040460501 2.4082999 1.6142499
-0.038451403 2.4097002 1.6097252
-0.040282667 2.4308 1.6061001
-0.037712999 2.4295046 1.6101817
-0.040577002 2.447825 1.6066999
-0.037798557 2.4507496 1.6095833
-0.04058275 2.4702501 1.609725
-0.037794001 2.470186 1.6104071
-0.0407365 2.4972501 1.60835
-0.037699331 2.4888878 1.6119872
-0.043830112 2.5086501 1.6101667
-0.045047376 2.5297003 1.6092416
-0.044525322 2.5501282 1.6101199
-0.045204092 2.5703094 1.6083094
-0.045710761 2.5911047 1.609581
-0.045905124 2.6115263 1.6094958
-0.043333866 2.6304467 1.6096001
-0.044684138 2.6509683 1.6089091
-0.04514182 2.6712227 1.6108184
-0.044900768 2.6878715 1.6108333
-0.046064891 2.7110276 1.6090112
-0.046143822 2.7311645 1.6106882
-0.046411227 2.7494814 1.6111408
-0.046170574 2.769881 1.6116809
-0.04681243 2.7908955 1.6087047
-0.047565781 2.8104 1.6096261
-0.047625724 2.8291836 1.6079777
-0.048001662 2.8492601 1.6097865
-0.034681499 2.8546 1.61725
-0.04673877 2.8685765 1.6069152
-0.047799286 2.8882213 1.6081142
-0.047113221 2.9101999 1.6104277
-0.046251319 2.930516 1.6092157
-0.04708593 2.9517426 1.6068214
-0.047976371 2.971679 1.6101002
-0.048464667 2.9897668 1.610175
-0.049248271 3.0111797 1.6089401
-0.049574357 3.029794 1.6112942
-0.049484331 3.0494165 1.6087834
-0.0495933 3.0714884 1.6102
-0.049606554 3.0892441 1.60815
-0.048880335 3.1099932 1.6084132
-0.049764238 3.1307058 1.6109881
-0.049707532 3.1505001 1.6102933
-0.049132142 3.1691525 1.6101904
-0.048946954 3.1903236 1.6102905
-0.048653111 3.2106109 1.6041777
-0.048649717 3.2264428 1.6097715
-0.05040675 3.2508249 1.60755
-0.049411263 3.2714336 1.6112866
-0.049580555 3.288878 1.6087444
-0.048932381 3.3079538 1.6090306
-0.04933 3.3255401 1.6099001
0.031334944 0.67421836 1.6297277
-0.0025998966 0.69576597 1.62598
0.010086074 0.68756473 1.6300654
0.020871 0.68181503 1.6315
-0.00099199999 0.70284998 1.6339999
1.8016e-05 0.70102 1.6339999
-0.020066001 1.597 1.6294
-0.0017899 1.5954 1.6323
-0.042218938 1.6085399 1.6291133
-0.039477333 1.6101834 1.6314334
-0.041517943 1.6301706 1.6305295
-0.039501283 1.6291715 1.6285714
-0.041670054 1.6498739 1.6311842
-0.038681 1.650075 1.6255
-0.041857399 1.6697866 1.6313733
-0.039055452 1.6712002 1.6294729
-0.041230999 1.6895083 1.629746
-0.039028499 1.6857001 1.63405
-0.040946152 1.7108999 1.6302048
-0.039344244 1.708975 1.628125
-0.041130167 1.7295833 1.6298335
-0.039173249 1.7288749 1.632275
-0.041187469 1.7492882 1.6293941
-0.039352253 1.75325 1.62975
-0.040718153 1.7697152 1.6290768
-0.039406169 1.7666167 1.6310333
-0.04067 1.7886333 1.6328
-0.039546113 1.7886668 1.6297556
-0.040887062 1.8124686 1.6285187
-0.039090831 1.8077499 1.6317083
-0.041273955 1.8297477 1.6303526
-0.039474003 1.8292 1.62384
-0.041351706 1.8480175 1.6313468
-0.038888 1.8504333 1.6317667
-0.041559722 1.8693112 1.6297834
-0.039268397 1.8730199 1.62588
-0.041137557 1.8909386 1.6304724
-0.039191004 1.8871833 1.6303501
-0.041379467 1.9094532 1.6307468
-0.038953599 1.90889 1.63469
-0.041766956 1.9306545 1.6302227
-0.039434999 1.9349 1.6339999
-0.041788463 1.9514363 1.6292092
-0.0397425 1.9476 1.6310251
-0.041592166 1.9696215 1.6295131
-0.039951 1.9607 1.6395
-0.041008338 1.9912 1.6298611
-0.038608331 1.9869334 1.626
-0.041830398 2.009465 1.6296002
-0.039567001 2.0062001 1.6275001
-0.041176848 2.0293462 1.631
-0.039177001 2.0260999 1.6316
-0.042032234 2.0501761 1.6309333
-0.042703107 2.0705442 1.6291407
-0.042499229 2.0889883 1.6313001
-0.039626502 2.0899 1.6257501
-0.043099489 2.1101358 1.6291361
-0.042884897 2.130542 1.6295474
-0.039303999 2.132 1.6319
-0.043165777 2.1507175 1.6291391
-0.043599624 2.1703625 1.6314126
-0.042250272 2.1904271 1.630141
-0.043401431 2.2103798 1.6306319
-0.043322589 2.2285545 1.6282182
-0.044064004 2.2507312 1.6276562
-0.042897481 2.2695305 1.6286346
-0.042481948 2.2899685 1.6311842
-0.039243501 2.2967 1.63325
-0.040788002 2.31095 1.6292
-0.038214434 2.3108737 1.6296653
-0.040628001 2.325475 1.63025
-0.03682591 2.3303545 1.6297226
-0.040668502 2.3483 1.6259
-0.035937782 2.3490174 1.6307656
-0.040585 2.3692501 1.63585
-0.038053423 2.3695896 1.6295894
-0.041299999 2.3934 1.632
-0.037538171 2.3886127 1.6304045
-0.041324429 2.4136426 1.6347858
-0.037861384 2.4076693 1.6274847
-0.040991504 2.4285798 1.6311001
-0.039127499 2.4294126 1.63205
-0.040958997 2.4501832 1.6273166
-0.038744874 2.4497936 1.6303561
-0.04071575 2.4673626 1.6333625
-0.037691828 2.4703419 1.6299709
-0.041200999 2.4862001 1.6216
-0.03825441 2.4902 1.6311293
-0.043860532 2.5111177 1.6291882
-0.044500448 2.5306387 1.6299778
-0.044124685 2.5489001 1.6303811
-0.044843219 2.5694871 1.6291565
-0.044872209 2.588846 1.6297625
-0.044941913 2.6103911 1.6302696
-0.043931 2.6296556 1.6293833
-0.04506937 2.6491418 1.6305052
-0.044832543 2.6702092 1.630441
-0.045570437 2.6902814 1.6307999
-0.04582905 2.7097571 1.6276144
-0.045680612 2.728617 1.6309279
-0.046364103 2.7479262 1.6298581
-0.046647612 2.7704997 1.6286944
-0.046464603 2.787853 1.6302867
-0.045819096 2.8105907 1.6305192
-0.044576999 2.8234 1.6267999
-0.033867765 2.8300586 1.6315941
-0.032199454 2.8488197 1.63016
-0.042808 2.8751998 1.62205
-0.034007788 2.8689497 1.6308072
-0.035371881 2.8892179 1.6323588
-0.0415802 2.9089 1.6246799
-0.036775801 2.9134002 1.62887
-0.0403875 2.92575 1.6387
-0.036026202 2.9260001 1.6319201
-0.042471901 2.95351 1.63298
-0.039687 2.9559 1.6386
-0.042669702 2.9680202 1.63079
-0.039542198 2.97224 1.6338001
-0.042194854 2.9941139 1.6311285
-0.038492598 2.9893 1.6340599
-0.048167001 3.0096548 1.6269181
-0.049486589 3.0293958 1.6297183
-0.048590049 3.0488632 1.6314737
-0.048353799 3.0706348 1.629735
-0.049656428 3.0912859 1.6303071
-0.049289547 3.1092362 1.6310817
-0.04947263 3.1292248 1.6289061
-0.04942593 3.1511216 1.6292572
-0.049423426 3.1675074 1.6298714
-0.049398143 3.1894002 1.6294954
-0.050097063 3.2129824 1.6309234
-0.04944982 3.230253 1.6309177
-0.049352765 3.2506883 1.6303178
-0.049727291 3.2689412 1.6294118
-0.050591152 3.2916536 1.6302463
-0.049867995 3.3054855 1.6279714
-0.04976967 3.3213832 1.6300834
0.019183001 0.67966002 1.6493
0.032699544 0.67396587 1.6482453
-0.0042786887 0.69628453 1.6490779
0.0088438159 0.68847281 1.6500522
0.022037799 0.68171197 1.6499001
-0.0044574668 0.70072335 1.649
-0.0058825999 1.5941 1.6454999
0.014503749 1.5925499 1.6544499
-0.041669317 1.6119002 1.6482502
-0.038677167 1.6082834 1.6553
-0.041665833 1.6308793 1.649525
-0.039204501 1.6231999 1.641
-0.041890722 1.6496664 1.6494334
-0.039717998 1.6537 1.651
-0.040965009 1.6704714 1.6507571
-0.039777502 1.66865 1.6459666
-0.040948156 1.6894211 1.6497579
-0.038625401 1.6958802 1.6499599
-0.040541545 1.7080272 1.6510181
-0.039011702 1.7127501 1.65238
-0.041269179 1.7301456 1.6502318
-0.039360601 1.7349399 1.65218
-0.041436095 1.7514572 1.6491572
-0.03929643 1.7480143 1.6500571
-0.041033238 1.7695824 1.649106
-0.039735597 1.7685801 1.6515801
-0.04115681 1.7885064 1.6505126
-0.039054248 1.7932999 1.6479125
-0.041096769 1.8130847 1.6487463
-0.038947251 1.8046875 1.6483376
-0.040962555 1.8300166 1.6497113
-0.0387755 1.83165 1.654175
-0.041362315 1.8511631 1.6514739
-0.038881835 1.8489166 1.6471833
-0.041299954 1.870259 1.64985
-0.038497001 1.8777 1.6548001
-0.041396365 1.8894589 1.6510502
-0.039562002 1.8898749 1.6527998
-0.041625168 1.9101832 1.6484001
-0.039053749 1.911225 1.6547749
-0.041437123 1.9306624 1.6480812
-0.041395523 1.9515529 1.6514766
-0.039545 1.9448599 1.64706
-0.041933253 1.9709113 1.6496668
-0.041694518 1.989737 1.6517736
-0.038650002 1.98928 1.6441301
-0.04187052 2.0093679 1.6493202
-0.038867 2.0141001 1.6504
-0.042571597 2.0313096 1.6479002
-0.039548665 2.0253 1.6531
-0.042292863 2.0510683 1.6499275
-0.042242225 2.0703888 1.6504723
-0.039143335 2.0702333 1.6442333
-0.042404838 2.0902319 1.6512681
-0.042894319 2.1103842 1.6488882
-0.042366002 2.1287677 1.6497753
-0.042942218 2.1501665 1.6512669
-0.039537001 2.1543 1.6418
-0.043074355 2.1719768 1.6485176
-0.043063998 2.1905422 1.6498578
-0.042845204 2.2102599 1.6506901
-0.043697618 2.230119 1.6490847
-0.043983907 2.2500613 1.6498325
-0.043336216 2.2701249 1.6493107
-0.042917497 2.2891698 1.64925
-0.039527331 2.2963998 1.6486
-0.041017003 2.3017502 1.65165
-0.036723901 2.3078499 1.64993
-0.036276303 2.3296845 1.6500156
-0.035164155 2.3485999 1.6508684
-0.040095001 2.3762 1.6476001
-0.037301477 2.3695705 1.6503334
-0.041081 2.3906398 1.64858
-0.038282569 2.3889 1.6502215
-0.04206875 2.4111879 1.6471812
-0.0391845 2.4059165 1.6543999
-0.040781248 2.4279084 1.6494417
-0.038968001 2.433789 1.6507111
-0.040900767 2.4527383 1.6518923
-0.038582329 2.4499166 1.6482
-0.041039646 2.4698143 1.6502713
-0.039194666 2.4733667 1.6536777
-0.0405146 2.49312 1.6549799
-0.038444113 2.4881606 1.6491445
-0.044554457 2.5109751 1.65005
-0.044164497 2.5290122 1.6502415
-0.044460725 2.5498366 1.6506273
-0.045503192 2.5699337 1.6506239
-0.04441759 2.5882056 1.6495001
-0.045388222 2.6097224 1.6509166
-0.044607554 2.629432 1.649524
-0.045359608 2.6497498 1.6504445
-0.045531474 2.6681354 1.6501646
-0.045024894 2.6891003 1.6493499
-0.045887332 2.7095611 1.6497723
-0.045663998 2.7320752 1.6502502
-0.046571672 2.7499583 1.650246
-0.046349753 2.7676597 1.648895
-0.046600673 2.791678 1.6498723
-0.04588712 2.8094311 1.6477001
-0.043643005 2.82184 1.6524398
-0.033003502 2.83041 1.6507499
-0.032581501 2.8481438 1.64905
-0.03478846 2.8700922 1.648275
-0.040329248 2.89275 1.6524251
-0.037140388 2.8883777 1.6507722
-0.040663667 2.9097166 1.6518832
-0.038180299 2.90628 1.64733
-0.041391689 2.9294078 1.6506925
-0.03928975 2.9275501 1.6457751
-0.042476613 2.9502923 1.6489308
-0.039221998 2.9493999 1.6568
-0.042531006 2.9707429 1.6505572
-0.039785329 2.9708002 1.65
-0.042217541 2.9893136 1.6521533
-0.039904997 2.9933999 1.6461667
-0.04802778 3.012167 1.6520001
-0.049076345 3.0304825 1.6490958
-0.04854783 3.0514057 1.6489999
-0.049847234 3.0695293 1.6488765
-0.049906455 3.0914457 1.6491452
-0.048806563 3.1094811 1.6518064
-0.049474552 3.1302557 1.6507221
-0.05014595 3.1509736 1.6502736
-0.049585 3.1683888 1.6514444
-0.049520072 3.1912003 1.6504642
-0.05007888 3.2084413 1.6486353
-0.049089275 3.2289727 1.6514182
-0.049039669 3.2494223 1.6523666
-0.049344283 3.2688639 1.6499857
-0.049497556 3.2906001 1.6507667
-0.049203184 3.3075089 1.6475638
-0.048851997 3.3204 1.6437
0.031386197 0.67383307 1.6706451
-0.0046472228 0.6969189 1.6708999
0.0091811065 0.68830109 1.6713474
0.023261001 0.68082994 1.67178
-0.00686255 0.70179254 1.6711751
-0.031920999 1.5993333 1.6723
-0.0182335 1.5985999 1.6703
0.0037496001 1.59305 1.6694
-0.042360611 1.6115112 1.6699888
-0.038254999 1.6060375 1.6701375
-0.04176965 1.6294391 1.6707958
-0.041481048 1.6503865 1.6701908
-0.039340001 1.64864 1.6674801
-0.041371498 1.6714849 1.6698749
-0.039624501 1.6667 1.6684333
-0.041390527 1.6894895 1.6697842
-0.039490752 1.6931 1.6675
-0.04099277 1.7117155 1.669454
-0.039236501 1.706525 1.6702999
-0.041758854 1.73074 1.669515
-0.039472166 1.7276834 1.6675667
-0.041153643 1.7497646 1.6703709
-0.038749501 1.7568001 1.6744499
-0.041303001 1.7686312 1.6730436
-0.038884748 1.773325 1.666375
-0.041821294 1.7906201 1.66945
-0.038685165 1.7866167 1.6662668
-0.041250385 1.8096783 1.6712784
-0.038601 1.8105428 1.6647142
-0.041837048 1.8312857 1.6690477
-0.0387205 1.8289 1.6758
-0.041301001 1.8514105 1.6689526
-0.039643001 1.8585 1.6631
-0.041474629 1.8695421 1.671542
-0.039127499 1.868525 1.666925
-0.041105334 1.8893666 1.6714168
-0.039619796 1.8898799 1.6688
-0.041347608 1.9113084 1.668913
-0.038926497 1.9044499 1.67395
-0.041107874 1.9291543 1.6701498
-0.03938625 1.9323 1.6686001
-0.041130103 1.9496211 1.6690737
-0.039623249 1.9487 1.6674501
-0.041635599 1.970265 1.669775
-0.039766997 1.9788001 1.6651
-0.041296683 1.9908423 1.6707841
-0.039422333 1.9902333 1.6662999
-0.043071114 2.0101478 1.6699897
-0.042278942 2.0318177 1.6694765
-0.039501 2.0335 1.6717
-0.042034466 2.0494654 1.6703041
-0.039560001 2.0559001 1.6748
-0.042241666 2.0706003 1.6701295
-0.039533 2.0616 1.6749001
-0.042528823 2.089447 1.6691648
-0.042295605 2.1089151 1.669255
-0.042855497 2.1308863 1.6705728
-0.042903855 2.1515152 1.6703202
-0.043385286 2.169992 1.6690559
-0.043174885 2.1891847 1.6695806
-0.039421 2.181 1.6698999
-0.044005174 2.2089462 1.6704786
-0.042271744 2.2300353 1.6691551
-0.037721001 2.2228999 1.6672
-0.043252498 2.2505548 1.6701
-0.039386999 2.2423999 1.6679
-0.043320522 2.2699869 1.6713915
-0.042827278 2.2896719 1.669144
-0.037136 2.2987499 1.6698999
-0.040456001 2.3001001 1.6767
-0.035871167 2.3095627 1.6687417
-0.03488642 2.3303378 1.6693207
-0.040256001 2.359 1.6720001
-0.03746609 2.3503048 1.668981
-0.040171999 2.3748598 1.67024
-0.038522333 2.368 1.6694888
-0.041046999 2.3938203 1.6731001
-0.039054189 2.3891063 1.6699686
-0.041339763 2.4109588 1.6690177
-0.039105669 2.4101498 1.67075
-0.041624751 2.4300752 1.6702051
-0.039272748 2.4314752 1.6733251
-0.040935211 2.4504001 1.6693143
-0.038487166 2.4498668 1.6720167
-0.041301835 2.4699333 1.6692249
-0.039044667 2.4663 1.6681666
-0.041156422 2.4895737 1.6705946
-0.038274001 2.4921999 1.6706667
-0.043048002 2.5088716 1.6709214
-0.044252198 2.5295653 1.6699648
-0.044528291 2.5492043 1.6700875
-0.044614624 2.5706043 1.6703914
-0.044530734 2.5900915 1.6687262
-0.044870686 2.609679 1.6695106
-0.043778282 2.6294284 1.6694045
-0.044825453 2.648665 1.6719401
-0.044935875 2.6692522 1.6690826
-0.04575162 2.6905651 1.6699309
-0.045991544 2.7104228 1.6707093
-0.046408448 2.7297277 1.6692443
-0.046118211 2.749316 1.6692209
-0.045294736 2.7689333 1.6716399
-0.046052121 2.7901678 1.6701399
-0.047044646 2.8111408 1.6669999
-0.046227999 2.8211598 1.6719601
-0.030802617 2.8277926 1.6708462
-0.034044389 2.8498001 1.6705499
-0.041071497 2.87465 1.6768
-0.036899876 2.86835 1.669544
-0.040596716 2.8939431 1.6749001
-0.037914298 2.8872502 1.67197
-0.042007532 2.9127533 1.6707599
-0.038403671 2.9077003 1.6690999
-0.043352108 2.9310999 1.6706581
-0.043188833 2.9501169 1.6696556
-0.039880998 2.9505 1.6796
-0.043624219 2.969743 1.6684856
-0.042190999 2.9882259 1.6691579
-0.039877001 2.9862001 1.6763999
-0.047934067 3.0115666 1.67058
-0.04856075 3.0305815 1.6709187
-0.048433941 3.0510061 1.6706812
-0.049014639 3.0697181 1.6698909
-0.048896346 3.0914121 1.6709353
-0.048666604 3.1082301 1.6701599
-0.049858533 3.1302824 1.6687882
-0.049446724 3.1505723 1.6713834
-0.048732352 3.1701999 1.6705644
-0.048669465 3.1895461 1.6671308
-0.049162365 3.2118363 1.6704181
-0.050167266 3.2291601 1.6700535
-0.048245803 3.2486801 1.6717699
-0.050478596 3.2694297 1.6708
-0.049039003 3.2952859 1.6698
-0.050054003 3.3098702 1.6700001
0.031390239 0.67450476 1.6895665
-0.0064510182 0.69615835 1.6929584
0.010822866 0.68676543 1.6906816
0.0206335 0.68277502 1.6831
-0.010629714 0.70278138 1.6893142
-0.030470001 1.5999 1.6861
-0.011381079 1.5961334 1.6839666
0.00012053 1.5927 1.6818
-0.042468045 1.6102138 1.6894817
-0.03741575 1.601475 1.692825
-0.04189565 1.6311042 1.6895261
-0.039081249 1.6279501 1.689225
-0.041222047 1.6502421 1.6900053
-0.041060667 1.669 1.6893667
-0.039009001 1.6708001 1.6960834
-0.041734155 1.690444 1.690428
-0.039352998 1.6818 1.6842999
-0.041881226 1.7090827 1.6894087
-0.039191999 1.70645 1.69435
-0.041559316 1.7298362 1.6910725
-0.039566796 1.7301199 1.69016
-0.040617559 1.7493812 1.6895872
-0.039103996 1.749143 1.6896572
-0.041226767 1.7714078 1.690677
-0.039093271 1.768309 1.6877999
-0.04134582 1.7920272 1.6925728
-0.039379001 1.79266 1.6937599
-0.041197337 1.81056 1.6927333
-0.039263286 1.8084573 1.6868713
-0.041014545 1.8306819 1.6886727
-0.038927 1.829825 1.6888001
-0.041080855 1.85044 1.68986
-0.039087832 1.8491167 1.6914001
-0.04109728 1.8682611 1.6899223
-0.038678199 1.8730199 1.6884
-0.041450571 1.8905429 1.6901
-0.039321125 1.8866874 1.6881875
-0.040936619 1.9085572 1.6899858
-0.0388625 1.9144499 1.69495
-0.041968435 1.9297608 1.6908391
-0.039745502 1.9279001 1.6885
-0.041336667 1.9507143 1.6901808
-0.039263371 1.95075 1.6882126
-0.041933283 1.9699835 1.68935
-0.039188001 1.9636999 1.6921333
-0.041802082 1.9885483 1.68938
-0.042188864 2.0103045 1.6892434
-0.03977 2.0023999 1.6912
-0.042193677 2.0297275 1.6900547
-0.039641999 2.0253999 1.6828001
-0.042227272 2.0498774 1.6912819
-0.039541665 2.0465667 1.6835667
-0.042911857 2.0706334 1.690738
-0.042858697 2.0888653 1.6900219
-0.042910215 2.109148 1.6900609
-0.043209363 2.1295211 1.6884209
-0.039298002 2.1229999 1.6864001
-0.042986106 2.1501369 1.6890367
