# .PCD v0.7 - Point Cloud Data file format
VERSION 0.7
FIELDS x y z
SIZE 4 4 4
TYPE F F F
COUNT 1 1 1
WIDTH 1571
HEIGHT 1
VIEWPOINT 0 0 0 1 0 0 0
POINTS 1571
DATA ascii
0.76977718 2.2885239 0.22423622
0.79019678 2.2896454 0.22302046
0.81132436 2.2913811 0.22329125
0.83183056 2.2881842 0.22288051
0.85078794 2.2884347 0.22319131
0.869506 2.2903318 0.22365801
0.88987327 2.2892878 0.22306252
0.91020232 2.2901959 0.22218321
0.93009806 2.290175 0.22219063
0.94971091 2.2900865 0.22203907
0.97059309 2.2894652 0.2218225
0.9909339 2.2902215 0.22139959
1.0087769 2.2933767 0.22154307
1.0288999 2.2899857 0.22182429
1.0518707 2.290554 0.22212833
1.0709751 2.2906125 0.22100438
1.0895236 2.2929118 0.2212541
1.1124299 2.2891102 0.22087601
1.1333001 2.2876375 0.22109126
1.1483001 2.2895701 0.22107801
1.1682166 2.2900834 0.221165
1.1918589 2.2892823 0.22112237
1.2104499 2.2908001 0.22095214
1.230225 2.2923126 0.22053126
1.2489125 2.2920372 0.22070251
1.2699766 2.2897062 0.22078
1.2914231 2.2927384 0.22053076
1.3065399 2.2907798 0.22094199
1.3301687 2.2882185 0.22129498
1.3484727 2.2897093 0.22080545
1.3659333 2.2900584 0.22094665
1.39065 2.2884898 0.22039899
1.4108751 2.2864125 0.221095
1.4338769 2.2907541 0.22087923
1.44452 2.29252 0.221028
1.4691232 2.2894461 0.22075769
1.4871556 2.2889555 0.22044224
1.50888 2.29076 0.22172602
1.5289334 2.2903502 0.22070998
1.5541537 2.2885077 0.22095463
1.5629667 2.2896001 0.22017665
1.5909834 2.2863834 0.22058333
1.6098 2.2867815 0.2203709
1.633 2.2880998 0.22084799
1.6447001 2.2911334 0.22056556
1.6713001 2.2953999 0.220815
1.6917236 2.2915061 0.22116825
1.7107643 2.2894714 0.22083142
1.7297846 2.2892997 0.22059999
1.75339 2.2909102 0.220667
1.7689497 2.2908461 0.22137077
1.7906606 2.2910745 0.22180107
1.8116878 2.2905545 0.22133148
1.830272 2.2893248 0.22139686
1.8499925 2.2900431 0.22167167
1.8691164 2.2912781 0.22133751
1.8910726 2.2895968 0.22142668
1.9105766 2.2908492 0.22200303
1.9313077 2.2895463 0.22183183
1.9508202 2.2894647 0.22181737
1.9704747 2.2900701 0.22246447
1.9898469 2.2895019 0.22279909
2.0099084 2.2910731 0.22211482
2.0295391 2.2903788 0.22232655
2.0498331 2.2905612 0.22209713
2.0706506 2.2900231 0.22264825
2.091465 2.2897193 0.22302002
2.1096985 2.2893703 0.22287983
2.1301823 2.2902427 0.22319525
2.1441503 2.2901702 0.22369865
0.48834047 2.3095956 0.22802782
0.50822186 2.3108091 0.22312182
0.52768219 2.3100572 0.22348143
0.54603076 2.3098538 0.2221023
0.56931812 2.3095617 0.22439906
0.59205854 2.309443 0.22386144
0.60895717 2.3099499 0.22233427
0.63059229 2.3106954 0.2231936
0.65249997 2.3094563 0.22430813
0.67014742 2.3089786 0.2238474
0.6907227 2.3085935 0.22300668
0.70893562 2.310267 0.22248057
0.73226947 2.308815 0.22472398
0.74997449 2.3114409 0.22341728
0.7716167 2.3091047 0.22329238
0.79145169 2.3087111 0.22387944
0.80924308 2.3099349 0.22318564
0.831352 2.3085718 0.22313799
0.85002995 2.3102958 0.22283542
0.869335 2.3095253 0.22267087
0.89001232 2.3084772 0.22240001
0.91192883 2.3089721 0.22261055
0.92978156 2.3111527 0.22187313
0.95116907 2.309109 0.22277275
0.97035939 2.3117497 0.22163667
0.99204069 2.3111267 0.22107267
1.0103427 2.3102474 0.22214238
1.02959 2.3104701 0.221881
1.0479811 2.3084249 0.22149876
1.070425 2.3091936 0.22113061
1.09074 2.3119872 0.22159602
1.1116333 2.3106201 0.22101334
1.1287084 2.3104789 0.22125125
1.1499765 2.3086944 0.22080354
1.1694683 2.307842 0.22099367
1.1919948 2.3096318 0.22113161
1.21024 2.30865 0.22079
1.2275916 2.3097916 0.22102332
1.2509834 2.3082583 0.22093999
1.2705059 2.3107471 0.22105648
1.2878 2.309305 0.22118182
1.3096823 2.3095117 0.22088706
1.3293231 2.3113692 0.22097614
1.34575 2.308275 0.22053124
1.3669273 2.3098273 0.22091274
1.39209 2.3070698 0.221082
1.4094231 2.3113 0.22053768
1.4298813 2.3098686 0.22109312
1.4511272 2.3099 0.22060546
1.4634749 2.3082252 0.22072999
1.4884833 2.3125334 0.22076166
1.51045 2.31408 0.22097199
1.5276124 2.3107123 0.220365
1.5507168 2.3044336 0.22080165
1.5651 2.3081999 0.22052
1.58804 2.3179202 0.22066601
1.6111785 2.3103786 0.22110286
1.6336501 2.3109 0.220415
1.6500691 2.3076537 0.22065078
1.6734176 2.3106589 0.22081824
1.6905943 2.31005 0.22058669
1.7110134 2.3095865 0.22103669
1.7302895 2.3122578 0.22093843
1.7500587 2.3119764 0.22094589
1.7693321 2.3098109 0.22091605
1.7898103 2.3094656 0.2218093
1.811039 2.3101277 0.22201529
1.8298694 2.3113332 0.22121029
1.8495203 2.3095641 0.22165234
1.8687612 2.3092785 0.22155707
1.8884616 2.3098822 0.22166383
1.9097793 2.3100317 0.2221909
1.9306136 2.3091745 0.22156766
1.950262 2.3104756 0.22201708
1.9701142 2.3089526 0.22213529
1.9894956 2.3098576 0.22260636
2.009707 2.310463 0.22240978
2.029382 2.3102398 0.22212498
2.0504966 2.3100474 0.22271611
2.0709605 2.3093843 0.22288097
2.089967 2.3099949 0.2233451
2.1105003 2.309211 0.22323295
2.1301341 2.3093154 0.22319797
2.1438482 2.310183 0.22359961
0.48622283 2.3291392 0.22906926
0.50541115 2.3297882 0.2225059
0.53044122 2.3314562 0.22244564
0.54794198 2.3304 0.221507
0.56999201 2.3294351 0.22409901
0.59157109 2.3306684 0.2237526
0.60960543 2.3314466 0.22389068
0.63189191 2.328969 0.22400437
0.64972007 2.3300133 0.22341865
0.6690585 2.3289504 0.22407599
0.68934458 2.3299117 0.22337472
0.71089399 2.3296299 0.22327046
0.72977525 2.3312054 0.22347106
0.74994385 2.3301473 0.22426383
0.77130109 2.3294389 0.22375165
0.79125828 2.3296413 0.22383542
0.81138307 2.32918 0.22353251
0.82964754 2.329145 0.22268447
0.85133052 2.3306625 0.22346538
0.87053007 2.3298771 0.22289547
0.89171392 2.3292131 0.22295131
0.91146499 2.3303962 0.22271615
0.93163788 2.3292348 0.2219615
0.95241725 2.3311367 0.22187369
0.97007143 2.3303142 0.22155616
0.99106222 2.3293681 0.22156911
1.0111958 2.329679 0.22154748
1.0282905 2.3292236 0.22160904
1.0508444 2.3308058 0.22152445
1.0718586 2.3320177 0.22127651
1.0889444 2.3296776 0.22139333
1.1106222 2.330689 0.22147389
1.1318538 2.3309228 0.22135384
1.1505077 2.3322463 0.22099002
1.1689076 2.3319464 0.22122845
1.191394 2.3314528 0.22119707
1.2077727 2.3284457 0.22182909
1.2307312 2.3306751 0.2210481
1.2507666 2.3296268 0.22071402
1.268875 2.3300874 0.22060502
1.2885125 2.3270624 0.22070375
1.3064728 2.3297999 0.22066998
1.3264428 2.3269 0.22078572
1.3510358 2.3304214 0.22116926
1.3718667 2.3296165 0.22068499
1.3915402 2.3322902 0.22073701
1.4105077 2.3287539 0.22083458
1.4287374 2.3282752 0.22078875
1.449025 2.3273752 0.220285
1.471189 2.3295889 0.22075444
1.4874667 2.3373001 0.22062333
1.51371 2.3292699 0.221342
1.52512 2.3296399 0.220368
1.5498667 2.3294165 0.22111499
1.5690501 2.3323252 0.22064748
1.5900199 2.3286002 0.220524
1.6084286 2.3280928 0.22088572
1.6272 2.3309426 0.22055288
1.6506667 2.3311503 0.22070335
1.6731937 2.3318436 0.220745
1.6928998 2.3308787 0.22107717
1.7100105 2.3303051 0.22090317
1.7307261 2.3305054 0.22084419
1.7522999 2.3287752 0.22122084
1.7721249 2.3306544 0.22081876
1.789775 2.3289835 0.2212425
1.8098333 2.3302257 0.22086373
1.8302767 2.330673 0.221678
1.8498529 2.3295665 0.22134942
1.8701028 2.3309085 0.22130084
1.8911788 2.3296728 0.22159091
1.911705 2.3295066 0.22133739
1.9302393 2.3292024 0.22170581
1.9511412 2.3292716 0.22157913
1.9698648 2.331295 0.22199996
1.990091 2.3297541 0.22223215
2.0097823 2.3300226 0.22227754
2.0300262 2.3294129 0.22274303
2.0502355 2.3294981 0.22265191
2.069875 2.3304732 0.22301693
2.0906768 2.3301229 0.22343718
2.1103938 2.3304312 0.22304729
2.1303921 2.3299494 0.22325574
2.144268 2.3296137 0.22361955
0.48533601 2.348825 0.22945449
0.50995916 2.3482916 0.22380668
0.53033113 2.3500113 0.22207221
0.55123001 2.3511569 0.22345929
0.56935859 2.3497143 0.22387139
0.58719248 2.3499126 0.22422689
0.60979813 2.349319 0.2236176
0.63070071 2.3508 0.22332534
0.6503669 2.3506846 0.22451231
0.66875237 2.3482296 0.22362472
0.68880475 2.3490884 0.22405118
0.71049082 2.3495607 0.22270127
0.73171687 2.3509314 0.22440127
0.74852395 2.349916 0.22366039
0.76998997 2.3493669 0.22325833
0.78961486 2.3501279 0.22292843
0.81084687 2.3498409 0.22354406
0.82992107 2.3494358 0.22292502
0.84950507 2.3489954 0.22319318
0.86978394 2.3489356 0.22346155
0.88960952 2.3499823 0.22282819
0.91093439 2.3489649 0.22265783
0.93094862 2.3499048 0.22232047
0.94971997 2.3508391 0.22170521
0.97207397 2.3494 0.22178867
0.98866475 2.3511178 0.22149356
1.0118823 2.3493118 0.22140881
1.0315316 2.3503473 0.2210937
1.0513166 2.3500779 0.22171834
1.0707667 2.3496943 0.22129667
1.0893636 2.350023 0.22110496
1.1106358 2.3490145 0.22111429
1.1308399 2.3498201 0.22070999
1.14588 2.3510268 0.22109866
1.1685764 2.3523352 0.22106588
1.1921571 2.3512785 0.22098574
1.2085714 2.3548357 0.22125287
1.2346375 2.3506498 0.22088501
1.2503846 2.3502843 0.22110461
1.2673334 2.3507223 0.22101665
1.2911999 2.3479428 0.220745
1.31265 2.3500803 0.220709
1.333025 2.3499501 0.2206275
1.3523444 2.3481112 0.22091225
1.3678062 2.3519499 0.22091877
1.3923222 2.3501887 0.22098723
1.4105383 2.3516538 0.22070076
1.4327999 2.3507299 0.22071898
1.4518501 2.3510168 0.22080167
1.4718599 2.3496299 0.22101101
1.4896232 2.350354 0.22085539
1.5101833 2.3503997 0.22055916
1.5275 2.3499334 0.2208
1.5550572 2.352257 0.22104572
1.5694333 2.3477499 0.22078501
1.59005 2.3497 0.220135
1.60675 2.3453751 0.2207575
1.6279545 2.3496456 0.22049274
1.6494001 2.3517916 0.22148664
1.6747334 2.3513556 0.22051555
1.6937501 2.3502002 0.22102715
1.7127273 2.3510273 0.22094999
1.7303166 2.3519888 0.22113945
1.7488555 2.3515112 0.22128668
1.7699335 2.3522525 0.22083429
1.7883952 2.3496149 0.22091302
1.8108295 2.3496501 0.22154617
1.8285416 2.3510165 0.22123124
1.8511618 2.3498645 0.22159527
1.8696879 2.3497152 0.221637
1.8915482 2.3500407 0.22217411
1.9093423 2.3501246 0.22153136
1.9312052 2.3498211 0.221525
1.9509003 2.3503928 0.22188194
1.9694266 2.3501732 0.22232556
1.9901506 2.3502083 0.22221059
2.0116956 2.3503673 0.22187816
2.0298638 2.3497133 0.22218679
2.0501599 2.3490136 0.22257601
2.0700266 2.3499291 0.222406
2.0911279 2.3509922 0.22258842
2.1105943 2.3506212 0.2229487
2.1302524 2.3507595 0.22379559
2.1444335 2.3502882 0.22374819
0.48880556 2.3691814 0.2274126
0.51030076 2.3711538 0.22261924
0.52877188 2.369144 0.22328375
0.54855531 2.3695922 0.2234877
0.57031387 2.3702612 0.22437167
0.58949077 2.3713462 0.22439925
0.60898834 2.3708498 0.22459109
0.62969321 2.370379 0.2227274
0.64943695 2.3705616 0.22295615
0.67062521 2.3711948 0.22319317
0.68929636 2.3704422 0.22342527
0.70860296 2.369153 0.22266942
0.72865444 2.3696613 0.2235539
0.750552 2.3691158 0.22363105
0.77018285 2.3706524 0.22265427
0.7903288 2.3690469 0.22311297
0.81027788 2.3704288 0.22340538
0.8315568 2.3712947 0.22437789
0.84950048 2.368659 0.22221273
0.87001121 2.369822 0.2232561
0.8898384 2.3676598 0.22288559
0.91166407 2.3707819 0.22314002
0.93073052 2.3675714 0.22237097
0.94992405 2.3693392 0.22190565
0.96909946 2.3702791 0.22195263
0.98992264 2.3691192 0.22218807
1.010745 2.3702397 0.22174248
1.0279769 2.3692307 0.22157539
1.0518819 2.3697088 0.22109546
1.069189 2.369911 0.22143775
1.0865142 2.3684714 0.22075
1.1099933 2.3700068 0.22114
1.1312889 2.3691111 0.22130333
1.1501667 2.370111 0.2211089
1.1704842 2.3684261 0.22115105
1.190223 2.3718386 0.22144848
1.21059 2.3699801 0.22126201
1.2281599 2.3682899 0.22063501
1.2503266 2.3675802 0.22073534
1.27101 2.3689101 0.220907
1.2909889 2.3710334 0.22059999
1.3096501 2.3680286 0.22096144
1.3308374 2.3676627 0.22083874
1.3511262 2.3701472 0.22078471
1.3693 2.3682213 0.22110786
1.3901222 2.3707333 0.22081889
1.4145917 2.3673747 0.22157751
1.4298556 2.3681333 0.22073889
1.4520667 2.3694334 0.22111331
1.4673643 2.3683286 0.22123358
1.4923667 2.3738167 0.22021665
1.5124824 2.3691351 0.22111763
1.5312999 2.36988 0.22039799
1.5528501 2.3684001 0.22083251
1.5720626 2.3734999 0.22089876
1.5879099 2.3689899 0.22051099
1.61075 2.3643999 0.220385
1.6280999 2.3669167 0.22042167
1.6529446 2.3715112 0.22090554
1.6695001 2.3704858 0.22059712
1.692109 2.3698637 0.22067183
1.7103785 2.3705714 0.22096857
1.7280071 2.3678358 0.22114359
1.75045 2.3697789 0.2205157
1.7717251 2.3699071 0.22106609
1.7889998 2.3701665 0.22070199
1.8105234 2.3714633 0.22123469
1.8307316 2.3726881 0.22104278
1.8514124 2.3703127 0.22125751
1.8704361 2.3702927 0.22141697
1.8914806 2.3703527 0.22172303
1.9114047 2.3705568 0.22162737
1.9292394 2.3692212 0.22135524
1.9507742 2.3693385 0.22176178
1.9684583 2.3708479 0.22220601
1.9903038 2.3689957 0.22190768
2.0105388 2.3706567 0.22219612
2.0297296 2.3700166 0.22255667
2.0504982 2.3697896 0.22247557
2.0705001 2.3696623 0.2225104
2.0903528 2.3695281 0.22216678
2.1103661 2.3696091 0.22311594
2.1303566 2.3705599 0.22323887
2.1434524 2.3726697 0.2236426
0.48602134 2.3897593 0.22784638
0.50862002 2.3895111 0.22411445
0.52856165 2.3888083 0.22361334
0.550502 2.3919599 0.22147498
0.57139152 2.3915462 0.22410385
0.59039444 2.3864777 0.22495665
0.61031497 2.3909879 0.22343749
0.63030946 2.3907704 0.22284353
0.64905703 2.3906119 0.22424175
0.66872847 2.3912799 0.223851
0.68734998 2.3902414 0.22371411
0.70833105 2.3898833 0.22251886
0.73096508 2.3902419 0.22358793
0.75034583 2.3916101 0.22357635
0.76983386 2.3898616 0.2234038
0.790452 2.3895078 0.2235339
0.809349 2.3900738 0.22284317
0.83158231 2.3883231 0.22395729
0.85021091 2.3893666 0.22218379
0.87044948 2.3898709 0.22252916
0.89051223 2.3897173 0.22234997
0.90933818 2.3896635 0.2227423
0.92966229 2.3884499 0.22269182
0.94800848 2.3893056 0.22193106
0.96978611 2.3892174 0.22167608
0.98993051 2.3891046 0.22179049
1.0100399 2.3910534 0.22140531
1.0291209 2.3892376 0.22174208
1.0480355 2.3921826 0.22137116
1.0717539 2.3902926 0.2212908
1.0898923 2.392154 0.22073001
1.1081573 2.3872428 0.22084285
1.1311166 2.3908222 0.22157167
1.1478631 2.3879786 0.22166367
1.168418 2.387491 0.22087091
1.1932334 2.3912668 0.22123556
1.2098278 2.3914776 0.22135834
1.2288547 2.3914819 0.22064637
1.25095 2.3841999 0.22134751
1.2700915 2.3888998 0.22095501
1.2908309 2.3930459 0.2207754
1.3065875 2.3887999 0.22114249
1.3283625 2.3869624 0.22066623
1.3518 2.39013 0.220824
1.3683777 2.3885334 0.22096667
1.3869001 2.3875427 0.22061142
1.4084363 2.3907363 0.22044273
1.4277 2.391217 0.22060834
1.4515601 2.3906398 0.22091898
1.4713538 2.3904924 0.22089921
1.4897499 2.3903999 0.22090833
1.510425 2.3900416 0.22070415
1.5281833 2.3866332 0.22064666
1.5529002 2.3910232 0.22069615
1.5669615 2.3896384 0.2207323
1.5914601 2.3920398 0.22033
1.6124727 2.3909545 0.22095637
1.63095 2.3879502 0.22081573
1.64745 2.3847167 0.22063167
1.671425 2.388 0.22058249
1.6927091 2.3903093 0.22062273
1.7108687 2.3884063 0.22089936
1.729275 2.3900812 0.22073063
1.7503278 2.3893554 0.22041889
1.7710212 2.3899786 0.22114578
1.7905188 2.3906665 0.22104193
1.8103579 2.3891366 0.22140157
1.8303365 2.3889198 0.22155599
1.850008 2.3903975 0.22156027
1.86866 2.3914158 0.22174439
1.8911161 2.3900166 0.22102164
1.9105048 2.3893046 0.22163786
1.9314435 2.3902903 0.22152811
1.9493147 2.3907287 0.22142087
1.9699086 2.3891573 0.22190568
1.9908479 2.3897886 0.22228633
2.009795 2.390908 0.22215
2.0298975 2.3907859 0.22224954
2.0499694 2.3886364 0.22189103
2.0698361 2.3898356 0.22215049
2.0903676 2.3895073 0.2224739
2.1106439 2.3905253 0.22245467
2.1306982 2.3892512 0.22306237
2.1447091 2.3899269 0.22364847
0.48468062 2.409431 0.22638249
0.50970083 2.4108248 0.22384083
0.52305168 2.4079165 0.22347169
0.54967266 2.40908 0.22295934
0.57149261 2.4117537 0.22456999
0.58941448 2.4107449 0.22329803
0.60982746 2.409992 0.22333919
0.63050413 2.4088531 0.22441587
0.64908332 2.4097402 0.22344063
0.67053699 2.4113553 0.22406602
0.688564 2.4104199 0.22306331
0.70997816 2.4115045 0.22345181
0.73094308 2.4101596 0.22441702
0.7501052 2.410676 0.22470191
0.77029294 2.4097142 0.22459143
0.79085487 2.4105318 0.2235852
0.81009787 2.4107101 0.22334699
0.82914191 2.4100096 0.22364426
0.84809691 2.4088922 0.22234231
0.86775452 2.4087908 0.22305869
0.88949609 2.4101915 0.22334263
0.9101786 2.4097726 0.22315861
0.93098426 2.4089544 0.22271414
0.95012778 2.4095123 0.22186522
0.97016728 2.4094229 0.2216046
0.98946285 2.4084499 0.22115926
1.0103681 2.4092088 0.22155546
1.0280058 2.4084706 0.22132882
1.0497949 2.408555 0.22121949
1.0697048 2.4113092 0.2212095
1.0893556 2.4103777 0.22088446
1.1083446 2.4120998 0.22065668
1.1299436 2.4110065 0.22137061
1.1505461 2.408031 0.22103691
1.1690285 2.411638 0.22112143
1.1899143 2.4133716 0.22080572
1.2068534 2.4118068 0.22084931
1.2266692 2.4106462 0.22048232
1.2505801 2.4113002 0.22076699
1.27311 2.4082999 0.22100499
1.2902889 2.4092 0.22098608
1.3093899 2.4101799 0.22075801
1.3283713 2.4107144 0.22090428
1.3546749 2.4096 0.2207592
1.3672429 2.4095142 0.22111
1.3927165 2.4112165 0.22065167
1.410089 2.4086444 0.22071332
1.43018 2.4158399 0.220732
1.447 2.4070501 0.22089833
1.46736 2.4100001 0.220238
1.4925667 2.4078667 0.2202
1.512357 2.4107144 0.22068143
1.5304334 2.4129 0.22091556
1.5472857 2.4136569 0.22155285
1.5712571 2.4075758 0.22086096
1.5914249 2.4114001 0.22032751
1.6094466 2.4059134 0.22084068
1.6335599 2.40732 0.220842
1.6516901 2.40661 0.22106901
1.6681881 2.4096003 0.2209447
1.6915833 2.4074166 0.22072834
1.7097918 2.4076831 0.22125334
1.7313085 2.4107249 0.22151999
1.7477583 2.4096835 0.22079168
1.7731875 2.4118125 0.22119752
1.7899623 2.4107087 0.22110336
1.8087536 2.409893 0.22133334
1.8303497 2.411027 0.22120115
1.8500503 2.410671 0.22148049
1.869303 2.4090738 0.22123058
1.8903968 2.410156 0.22124
1.9104456 2.4088657 0.22117627
1.9301499 2.4100666 0.22200471
1.9485346 2.4102592 0.2216175
1.969057 2.4090402 0.22173402
1.9904091 2.4102116 0.22164698
2.0099766 2.4092641 0.22187665
2.0309045 2.4107955 0.22227864
2.0501368 2.4095933 0.22157021
2.0701878 2.4103596 0.22214639
2.0899062 2.4090369 0.22229058
2.1105688 2.4107921 0.22285511
2.1311951 2.4097016 0.22343802
2.1450655 2.4090068 0.22329722
0.48518094 2.4303453 0.22804275
0.50946844 2.4289153 0.22351228
0.53484571 2.4288573 0.22230287
0.54908502 2.4301417 0.22422166
0.57043159 2.4289052 0.22484791
0.59026271 2.4291611 0.22400945
0.60822362 2.4324725 0.22402544
0.62856209 2.4291427 0.22328569
0.65031785 2.4307563 0.22423783
0.67204684 2.4301894 0.22414526
0.69046879 2.4314377 0.22247314
0.7080335 2.432055 0.22267351
0.73037094 2.4305902 0.22468951
0.74948692 2.4310088 0.22351433
0.76961762 2.4299049 0.22300331
0.79275352 2.430655 0.22310503
0.80986607 2.4305887 0.22259778
0.8304897 2.429579 0.22364502
0.85127378 2.4303629 0.22249001
0.87034518 2.4294667 0.22241667
0.88945442 2.4298666 0.22266668
0.9096027 2.4301038 0.22244844
0.92864209 2.4301651 0.22153349
0.94973195 2.4295189 0.22208951
0.96995229 2.4300036 0.22183256
0.98900616 2.4318686 0.22158064
1.0097874 2.4310374 0.22105311
1.0281632 2.4273999 0.22103631
1.0466555 2.4282389 0.22126611
1.0717428 2.4299335 0.22141096
1.0910727 2.4294727 0.22094636
1.1110356 2.4280429 0.22063501
1.1299455 2.4287276 0.22135454
1.1507118 2.4276412 0.22131884
1.1704084 2.4294999 0.22070833
1.1906183 2.4323454 0.22107363
1.2068384 2.4303153 0.2207769
1.2286726 2.4298 0.22095546
1.2501125 2.4281499 0.221755
1.2717799 2.4316001 0.22091901
1.2907181 2.4297636 0.22064728
1.311725 2.431175 0.22091252
1.3276833 2.4333832 0.22078168
1.3519834 2.4298499 0.22091834
1.3745 2.4279747 0.22095874
1.3919556 2.4290779 0.22071667
1.4141375 2.4295626 0.2207275
1.4236666 2.4240999 0.22067666
1.4525751 2.431375 0.22068501
1.46574 2.42944 0.22052601
1.48955 2.4304099 0.22058499
1.5128374 2.4300504 0.22103375
1.5288668 2.4305336 0.22060667
1.5502249 2.4281499 0.22076416
1.5739 2.42765 0.221205
1.5909333 2.4259999 0.22041667
1.6124858 2.4327431 0.22165714
1.63035 2.4319999 0.22081
1.6485875 2.4290874 0.22079125
1.6652 2.4212 0.22034
1.6914386 2.4292312 0.2210246
1.7143123 2.4287 0.22088501
1.72927 2.43156 0.22043701
1.7512538 2.4289539 0.22124155
1.7690929 2.4302926 0.22097392
1.7894334 2.4329557 0.22112057
1.8102959 2.4298627 0.22089832
1.8296617 2.4301813 0.22106999
1.8500742 2.4306676 0.22152871
1.8703765 2.4297798 0.22166823
1.8913811 2.4310925 0.22129926
1.9109614 2.4308934 0.22132097
1.9292574 2.4295001 0.22163928
1.9489282 2.429841 0.22169825
1.9699341 2.4308786 0.22179475
1.9904287 2.4293268 0.22204797
2.0106995 2.4308274 0.22227859
2.030581 2.4292595 0.22193466
2.0490954 2.4300194 0.22245927
2.0695934 2.4302654 0.22196977
2.0902355 2.4296079 0.2224434
2.1102757 2.4305434 0.2227578
2.1298666 2.429486 0.2234039
2.14609 2.431442 0.22418933
0.48715958 2.4512095 0.22729805
0.50879246 2.4476497 0.22487876
0.52969855 2.4503572 0.22245716
0.54990691 2.4494002 0.22292617
0.56908 2.4511249 0.22466877
0.59016001 2.4510643 0.22351284
0.60949248 2.4494061 0.22437751
0.62893927 2.4505572 0.224195
0.65282071 2.4486732 0.22445466
0.67167377 2.4495814 0.22426502
0.68338376 2.4515874 0.22440499
0.7078405 2.4503572 0.22340524
0.73020995 2.4510095 0.2249276
0.75053054 2.4508221 0.22376943
0.76859891 2.4509685 0.2231037
0.78977525 2.4499156 0.22319159
0.81002271 2.4489999 0.22323474
0.83072555 2.4488077 0.22372361
0.84959435 2.4499304 0.22311868
0.87078524 2.4495606 0.22292653
0.89042062 2.4518833 0.22301501
0.91125399 2.4492638 0.222994
0.93137187 2.4500141 0.22200716
0.94881248 2.4509397 0.22183302
0.96983325 2.450911 0.2219363
0.99093926 2.4504156 0.22106308
1.01068 2.4489899 0.22107299
1.0304826 2.4507129 0.22118133
1.0508624 2.4489875 0.22152625
1.0707726 2.4505272 0.22163457
1.0892738 2.4511578 0.2212137
1.1104857 2.4479573 0.22054712
1.1307762 2.4509475 0.22156808
1.14859 2.4476199 0.221156
1.1651 2.4470572 0.22103713
1.1916667 2.4515169 0.22107333
1.2081702 2.4474201 0.22095999
1.2280285 2.4480572 0.22086573
1.2498749 2.4461498 0.22065249
1.2685333 2.4472001 0.22031333
1.2882286 2.4485714 0.22085072
1.3104666 2.4516499 0.22083832
1.3274572 2.4499428 0.2207257
1.35348 2.45186 0.22035201
1.373325 2.4515123 0.22037001
1.3908167 2.4511666 0.22111332
1.40688 2.4496 0.22054601
1.4280201 2.4479201 0.22048399
1.4529428 2.4477284 0.22054429
1.4623499 2.44995 0.22016999
1.4907833 2.4449666 0.22128166
1.5078666 2.4484112 0.22080223
1.5261599 2.4502401 0.220597
1.5528501 2.4508166 0.22079335
1.5689691 2.4499383 0.22095615
1.5905 2.4485333 0.22063001
1.6096572 2.4484572 0.2216157
1.6258 2.4468002 0.2204175
1.649309 2.4460998 0.22066727
1.670893 2.4497073 0.22079787
1.69157 2.4491601 0.220993
1.7094584 2.448925 0.22083502
1.7293365 2.4515274 0.22088818
1.7509062 2.4520874 0.22124186
1.7701411 2.4477999 0.22140649
1.7895634 2.4492831 0.22124702
1.8072641 2.449096 0.2211916
1.8314112 2.4506114 0.22145373
1.8488601 2.4497519 0.22095798
1.8694386 2.4496708 0.22118387
1.8909029 2.451112 0.22143906
1.9079887 2.449697 0.22151943
1.9307325 2.4494033 0.22171497
1.9502132 2.4499135 0.221571
1.9700683 2.4504774 0.22180842
1.9900475 2.4502723 0.22168387
2.0098279 2.4502213 0.22232763
2.0299318 2.449393 0.2219861
2.0483639 2.4510307 0.22190639
2.0696549 2.4490399 0.22236998
2.089572 2.4495914 0.22216423
2.1093583 2.4504149 0.22264095
2.1302822 2.4505706 0.22315507
2.1444795 2.4485793 0.2231562
0.47926 2.4790001 0.22288001
0.48736918 2.4682453 0.2277558
0.50783193 2.4711001 0.223648
0.52878463 2.4705336 0.222464
0.54940403 2.4684668 0.22303733
0.57081562 2.4678063 0.22403812
0.58790457 2.4711819 0.22357275
0.60999686 2.4697998 0.22284001
0.63286 2.4709833 0.22407584
0.65054142 2.4705191 0.22369428
0.67007059 2.4703503 0.22323875
0.68745798 2.4676301 0.22378401
0.70860541 2.4701955 0.2234682
0.73059654 2.4709949 0.223666
0.7516011 2.46925 0.22435278
0.76826292 2.4704595 0.22352001
0.79028201 2.4699667 0.22271664
0.80958045 2.4699566 0.22283259
0.82935566 2.4704809 0.22214313
0.84992474 2.4695854 0.22348286
0.86731565 2.4709001 0.22242498
0.88886458 2.4694836 0.22360711
0.91145062 2.4702539 0.22242731
0.93223339 2.4694202 0.22205132
0.94947845 2.4685597 0.22245851
0.96954471 2.4696791 0.22203624
0.99055439 2.4696174 0.22240433
1.0092896 2.4711788 0.22118789
1.0309957 2.4698129 0.22169998
1.0510529 2.4707942 0.22201823
1.0719286 2.4705212 0.22094786
1.0893232 2.4682462 0.2207723
1.11544 2.46872 0.22033398
1.1283571 2.4697931 0.22114286
1.1499571 2.4680998 0.22068001
1.1701126 2.4689314 0.221515
1.19069 2.4729202 0.22102201
1.2067 2.4677353 0.22095765
1.2316778 2.4728222 0.22115225
1.2525749 2.4662499 0.22061124
1.2677715 2.4732716 0.22075143
1.2879 2.4681251 0.22135501
1.3093785 2.4651928 0.22164929
1.3310626 2.4707501 0.220735
1.3520399 2.4634399 0.22081399
1.3713331 2.4688752 0.22067666
1.3949 2.4659667 0.22078001
1.4146144 2.4693143 0.22097573
1.4289 2.4687748 0.22121251
1.451525 2.4742248 0.22071749
1.4658 2.4677 0.22009
1.4933 2.4716666 0.22070666
1.51126 2.4689798 0.22057001
1.5339714 2.4684429 0.22062573
1.5518501 2.4731927 0.22071214
1.5687333 2.4630334 0.22104
1.594625 2.4711249 0.22016251
1.6113273 2.4716456 0.2209309
1.6272665 2.4747 0.22025
1.6515 2.4703445 0.22073001
1.6711923 2.471185 0.22066386
1.6909701 2.47035 0.22054999
1.7073501 2.4716198 0.22056398
1.7303687 2.4711871 0.22064061
1.7515473 2.4708996 0.22106527
1.7695333 2.4716668 0.22097932
1.7906663 2.4690442 0.22072721
1.8093573 2.4705818 0.22108893
1.830676 2.4693601 0.2211944
1.8493956 2.4690638 0.22137409
1.8704287 2.4700086 0.22104798
1.8907689 2.46861 0.22129172
1.9103844 2.4693732 0.22110383
1.9299037 2.4709141 0.22162203
1.949029 2.4700794 0.22144544
1.9699889 2.469764 0.22194499
1.9899081 2.4702876 0.22135769
2.0109098 2.4700766 0.2224277
2.0299456 2.4707625 0.22244228
2.0493331 2.4705596 0.22174238
2.0700431 2.4693139 0.22234549
2.0909593 2.4701874 0.22210082
2.1101313 2.4703557 0.22254828
2.1296866 2.4701869 0.22274947
2.145335 2.4686451 0.22273099
0.47975999 2.4988999 0.22404
0.48692504 2.4904599 0.22901949
0.50859708 2.4887002 0.22292998
0.530114 2.48755 0.22397199
0.54982764 2.4889293 0.22336178
0.56992835 2.4912417 0.22395332
0.58867401 2.4875901 0.224015
0.60958803 2.4887652 0.223865
0.62910938 2.4923186 0.22322063
0.65139502 2.4895372 0.22372624
0.67260808 2.4886434 0.22428814
0.68709779 2.4908555 0.22216111
0.71022803 2.4906602 0.22330599
0.73376638 2.4899788 0.2248393
0.74886221 2.4911833 0.22331166
0.7690171 2.4909999 0.22281152
0.79016757 2.4904294 0.22331882
0.80938101 2.4899096 0.22306752
0.82954681 2.4912677 0.22331959
0.85182327 2.4899797 0.2224136
0.87194353 2.4931502 0.22200857
0.89143789 2.4887483 0.2227387
0.9104206 2.4894149 0.22312704
0.93087965 2.4893718 0.22206397
0.94886887 2.489162 0.22236286
0.9691233 2.4891558 0.22185999
0.98923421 2.4907236 0.22171
1.00779 2.4899149 0.22158849
1.0307471 2.4903119 0.22149472
1.0489615 2.4864616 0.22192691
1.0662222 2.4876108 0.22185667
1.0906537 2.4939156 0.22124155
1.1063572 2.4941001 0.22092143
1.1313386 2.4893305 0.22202846
1.146575 2.4924626 0.22111687
1.1712999 2.4910798 0.22094901
1.1900429 2.4881001 0.22119287
1.2111399 2.4904799 0.22055499
1.2314 2.4901376 0.22059125
1.2488 2.4825001 0.22001
1.2673455 2.487318 0.22048545
1.2889835 2.4893835 0.22080167
1.30665 2.4889669 0.220645
1.3297714 2.4940143 0.22093715
1.3532833 2.4885001 0.22071999
1.3733333 2.4893167 0.22069333
1.3865 2.487375 0.22088251
1.40592 2.4882798 0.22047201
1.4288834 2.4913833 0.22080834
1.44815 2.4850252 0.2208
1.4732499 2.4884501 0.22051999
1.4868001 2.4934332 0.22055332
1.5150666 2.4880002 0.22066002
1.53048 2.4893601 0.22054601
1.5498 2.4921 0.22007
1.5672666 2.4897499 0.22075665
1.5904571 2.4896286 0.22108713
1.6074251 2.489125 0.22082999
1.62836 2.4877801 0.22068401
1.6473168 2.4915667 0.22056501
1.6688125 2.4908376 0.22107188
1.6898417 2.4902749 0.22110333
1.7108165 2.4878249 0.22049415
1.7289284 2.4923713 0.22077857
1.7500252 2.4900751 0.22072001
1.7683837 2.4891877 0.22134039
1.7898091 2.4887636 0.22081636
1.8101958 2.4902139 0.220965
1.8302175 2.4891958 0.2210865
1.8495921 2.491112 0.2210636
1.867816 2.48928 0.22123723
1.8901646 2.488776 0.22180162
1.9117765 2.4900851 0.22174677
1.9293473 2.4897676 0.22165351
1.9494334 2.490207 0.221478
1.9694841 2.4899905 0.22143322
1.9905032 2.4905968 0.22144772
2.0100472 2.4909778 0.22194307
2.0304372 2.4892375 0.22226326
2.0496767 2.4910643 0.22204566
2.0701938 2.4897046 0.2223504
2.0893214 2.4903138 0.22233061
2.1105065 2.4909089 0.22264144
2.1297164 2.4905541 0.22315414
2.1447322 2.4909232 0.22337736
0.47911334 2.5112 0.22986001
0.48503286 2.5094759 0.22766878
0.5084936 2.5112643 0.22278643
0.52951568 2.5103939 0.22385687
0.54804337 2.5106583 0.22364332
0.57046467 2.5087385 0.22353461
0.58798283 2.5110571 0.22342715
0.61034948 2.5107474 0.22416635
0.63232762 2.5104291 0.22302352
0.65044892 2.506989 0.22473557
0.66898721 2.5115669 0.2237622
0.68579912 2.5099249 0.22273751
0.70945793 2.5105708 0.22392373
0.72940379 2.5112944 0.2226761
0.75163114 2.510406 0.22342531
0.77074784 2.5106385 0.22348499
0.79101104 2.510458 0.22345738
0.80880994 2.5091176 0.22279236
0.82899958 2.5114501 0.22292818
0.85010904 2.5112002 0.22257003
0.8689065 2.5109143 0.22374213
0.88970959 2.5084381 0.22234093
0.91058129 2.5084331 0.22253959
0.93042153 2.5104401 0.22166748
0.95061779 2.5110943 0.22105391
0.97258216 2.5101054 0.22145724
0.99052185 2.5095334 0.22157764
1.0088545 2.5118043 0.22157186
1.0294499 2.5098441 0.22136624
1.0500047 2.5092523 0.22103809
1.0704055 2.5102389 0.22154889
1.090589 2.5088444 0.22125055
1.1094584 2.5101416 0.22110252
1.1305429 2.5114143 0.22070713
1.1514273 2.5080452 0.22050181
1.17038 2.5100198 0.220468
1.1914077 2.5099461 0.22055157
1.20225 2.5113499 0.220585
1.229225 2.5105877 0.22039999
1.2506443 2.5109224 0.22048777
1.271237 2.5126472 0.22115946
1.2921333 2.5109 0.22042
1.3085091 2.5097182 0.22047819
1.3295462 2.5065846 0.22123
1.3456 2.5020001 0.22055
1.36848 2.51228 0.22053799
1.3934666 2.5157001 0.22067334
1.4111145 2.5090859 0.22055426
1.4298249 2.5097873 0.22073874
1.4504 2.5062499 0.22009499
1.4674001 2.5079 0.22038001
1.4892499 2.5093 0.22104375
1.508225 2.5095501 0.22090749
1.5242667 2.5100667 0.22034998
1.5567 2.5167999 0.22024
1.5675499 2.5160501 0.22068501
1.5992 2.5028 0.22036
1.604975 2.51125 0.22060999
1.6252667 2.5174 0.22194333
1.6675498 2.509325 0.22049376
1.6881 2.5091169 0.22093749
1.7072667 2.5104501 0.22044669
1.728225 2.5093 0.22089376
1.7474723 2.5122774 0.22066055
1.7694416 2.5106001 0.22066419
1.7907809 2.5089095 0.22124238
1.811129 2.5084336 0.22129124
1.8309811 2.5096276 0.22098997
1.8499355 2.5095646 0.22142501
1.8703866 2.5105963 0.22132032
1.890632 2.5107484 0.22164837
1.9093841 2.5083401 0.22121161
1.9307002 2.508451 0.22161593
1.9506408 2.5102854 0.22161925
1.9695027 2.5102227 0.22166143
1.9911776 2.5101388 0.22185965
2.0096231 2.5085001 0.2215542
2.0309112 2.5097315 0.2223625
2.0512211 2.5101001 0.2216046
2.0695508 2.5102487 0.22213493
2.0900323 2.5105405 0.22240213
2.1102464 2.5098324 0.22269394
2.1301599 2.5100267 0.22263199
2.1459386 2.5107725 0.22333027
0.47903001 2.5220001 0.23018999
0.48630479 2.5297146 0.22882044
0.51174074 2.528877 0.22306615
0.53536999 2.5310779 0.22288775
0.55102402 2.5279198 0.223178
0.57084334 2.5309761 0.22403714
0.59180719 2.5302145 0.22484215
0.61039734 2.5302577 0.22491789
0.63167 2.5285199 0.222746
0.65016925 2.5319769 0.2229723
0.66992885 2.5305607 0.2240039
0.69050688 2.526623 0.22274075
0.71198606 2.5318947 0.22296388
0.72945678 2.5299437 0.22282624
0.74893796 2.5303202 0.22330801
0.76980042 2.53021 0.22296298
0.78879148 2.5285072 0.2224907
0.80994415 2.5290706 0.22292531
0.83062947 2.5295117 0.22302236
0.8510046 2.5302501 0.22241591
0.87149185 2.5294001 0.22204183
0.89075249 2.5305874 0.22153437
0.91119438 2.5285063 0.22222188
0.92837942 2.5275767 0.22267352
0.94843042 2.5305157 0.22249241
0.96947068 2.5291002 0.22131501
0.99123961 2.5304606 0.22191434
1.0099221 2.5301166 0.2218222
1.029716 2.53018 0.22177601
1.0477769 2.5314386 0.22138691
1.0703944 2.531178 0.22174388
1.0881134 2.5309665 0.22123
1.1100501 2.5284667 0.22092666
1.1293272 2.530709 0.22059365
1.1519556 2.5337553 0.22099443
1.1722273 2.532918 0.22129726
1.1892736 2.5296845 0.22096367
1.2103112 2.5282221 0.22073777
1.2275546 2.5317452 0.22113635
1.2490001 2.5295935 0.22048932
1.2690834 2.5269165 0.22132082
1.2918445 2.5316222 0.22076222
1.31076 2.5278602 0.22068401
1.33138 2.53018 0.22054
1.3440332 2.5309 0.22101001
1.3730428 2.529743 0.22075143
1.38538 2.53126 0.22109398
1.4103429 2.529557 0.2208457
1.4333334 2.5306001 0.22112
1.450575 2.5353251 0.22040999
1.4690001 2.53246 0.22065799
1.48664 2.5297198 0.22076599
1.5081799 2.52898 0.22059202
1.5363668 2.5305002 0.22067
1.55125 2.53585 0.220535
1.5695143 2.5291572 0.22077142
1.5946749 2.526525 0.2202875
1.6116333 2.5328 0.22014333
1.6292 2.5299666 0.22056
1.6518199 2.5329399 0.220872
1.66995 2.52495 0.22064
1.6902001 2.5329602 0.22103401
1.7060333 2.5316334 0.22017334
1.7268221 2.5330777 0.22066888
1.7466545 2.5313547 0.22081819
1.7704251 2.5292451 0.22100802
1.7906189 2.5295188 0.22082524
1.8096415 2.5304081 0.22090042
1.8295259 2.5303435 0.22139347
1.8504763 2.5294144 0.22077334
1.8691967 2.5286975 0.22111031
1.8883722 2.5300169 0.22107056
1.9101387 2.5295391 0.22124521
1.9291621 2.5296485 0.22129054
1.9484518 2.5285311 0.22140689
1.9699389 2.5294054 0.22172251
1.9893969 2.5300384 0.22183618
2.009562 2.529011 0.22155729
2.0311971 2.5298865 0.22183307
2.0513513 2.5307178 0.22192948
2.0706253 2.5283399 0.22190973
2.0899918 2.5296395 0.22252259
2.1095514 2.5305102 0.22236481
2.1303961 2.5309682 0.22266981
2.1458297 2.5302024 0.22332704
0.47948 2.5434999 0.22541
0.48431501 2.5500774 0.22776908
0.50911379 2.5498059 0.22411126
0.53229874 2.54895 0.22351752
0.54577333 2.5495999 0.22350335
0.57037896 2.5503833 0.22507612
0.58989996 2.5515003 0.22452237
0.61126107 2.5485721 0.22503498
0.63019115 2.5500293 0.2232794
0.65114933 2.5488 0.22434352
0.66957891 2.549859 0.22394823
0.68919599 2.5501251 0.22281651
0.70888865 2.5484998 0.22270001
0.73061574 2.5492718 0.22418787
0.74893171 2.5507739 0.22361739
0.76919645 2.5496349 0.22316699
0.79086334 2.5501616 0.2225181
0.81069583 2.5502584 0.22270416
0.82925278 2.5502589 0.22337137
0.85087091 2.5507686 0.22237052
0.86821586 2.5503707 0.22247235
0.88849044 2.5497565 0.22253348
0.90855235 2.5492477 0.22189617
0.93084782 2.5481944 0.22218555
0.94777805 2.55109 0.22171
0.97061306 2.550426 0.22197653
0.99195868 2.5461068 0.22142401
1.0115668 2.550374 0.22238742
1.0301963 2.5505075 0.22189267
1.050315 2.5494351 0.221404
1.0691941 2.5490589 0.22139764
1.0870429 2.5471711 0.22095571
1.1091924 2.5503078 0.22110078
1.1324737 2.5495367 0.22154105
1.1509948 2.5486631 0.2212563
1.1699001 2.548677 0.22131461
1.1885154 2.5471997 0.22092536
1.21199 2.5494599 0.22111499
1.2295001 2.5480499 0.22073875
1.2490777 2.5509665 0.22078334
1.2664624 2.5528374 0.22096625
1.2922624 2.5505998 0.22129001
1.3073667 2.5505464 0.220964
1.32635 2.5516 0.22016001
1.3540335 2.5497332 0.22034667
1.37125 2.5477834 0.22039999
1.3999 2.5481 0.22028001
1.4072499 2.5504875 0.22048502
1.4298334 2.5418665 0.22083999
1.4414001 2.5429001 0.22025001
1.4647 2.5555999 0.22
1.49044 2.5503201 0.220746
1.5098 2.5494499 0.221275
1.5276333 2.5434668 0.22032666
1.5488 2.5491199 0.22086599
1.5668399 2.5460598 0.22126201
1.5903428 2.5495572 0.22037999
1.6027 2.5459001 0.22113
1.632 2.55404 0.22051001
1.6492919 2.5501332 0.2208125
1.6697832 2.5537665 0.22102165
1.6947333 2.5504999 0.22154333
1.7092167 2.5504501 0.22065331
1.7293 2.551475 0.22076
1.75042 2.5480301 0.22044
1.7758428 2.5475574 0.22097859
1.7901717 2.5493855 0.22099856
1.807713 2.5501041 0.22123086
1.8317062 2.5492437 0.22096625
1.851 2.5507541 0.22079231
1.8708346 2.5500538 0.22085308
1.8917179 2.5501039 0.22136107
1.9104606 2.5503998 0.22162642
1.9302928 2.5481212 0.22137001
1.9500366 2.551363 0.22133578
1.9695036 2.5509217 0.22140177
1.9902278 2.5470197 0.22141244
2.0100467 2.5484595 0.22140433
2.0306807 2.5499451 0.2218169
2.0501294 2.5486526 0.22197261
2.0709512 2.5496113 0.22164345
2.0911057 2.5497065 0.22216548
2.1100781 2.5501003 0.22227167
2.130589 2.5496233 0.222665
2.1465297 2.550734 0.22327435
0.47881332 2.572 0.22983332
0.48660615 2.5674999 0.22804847
0.50995499 2.567775 0.22494625
0.53311872 2.5681872 0.22342625
0.55330908 2.57058 0.22438602
0.56979799 2.5689499 0.223653
0.59084469 2.5684001 0.22414938
0.61020005 2.5711563 0.22297186
0.63208771 2.5671539 0.2243623
0.64928836 2.5705085 0.22467335
0.67065078 2.5705783 0.22421217
0.69097418 2.5683687 0.22312318
0.71077573 2.5696571 0.22284286
0.72970665 2.5695837 0.22286388
0.75003421 2.569958 0.22301051
0.76924551 2.570015 0.22255301
0.78980315 2.5689063 0.22317624
0.81239796 2.5677602 0.22228798
0.83090925 2.5694215 0.22247286
0.84999597 2.5700448 0.22193702
0.87148714 2.569443 0.22413144
0.88884652 2.5710995 0.22220303
0.90954727 2.5691609 0.22285835
0.929986 2.57025 0.22197504
0.95007235 2.5696759 0.22273363
0.96956301 2.5698798 0.22222801
0.99178201 2.5724602 0.22209498
1.0103151 2.5696399 0.2220505
1.0289277 2.570683 0.22191331
1.0488546 2.5692911 0.22179227
1.0711462 2.5711458 0.22138616
1.0894923 2.5682077 0.2210954
1.112425 2.5700085 0.22103836
1.1313941 2.5669882 0.22221473
1.15029 2.57094 0.22172198
1.175 2.5711875 0.22115126
1.1893167 2.5710666 0.22092222
1.2125667 2.5702331 0.22119169
1.2349334 2.5718334 0.22107999
1.2491462 2.568846 0.22123231
1.2659832 2.5704999 0.22160499
1.2906867 2.5685067 0.22146131
1.308894 2.569494 0.2210459
1.3298999 2.5705571 0.22099002
1.3471251 2.57055 0.22079501
1.3695999 2.5720832 0.22048502
1.39276 2.5747199 0.2207
1.41438 2.5694199 0.22037999
1.42838 2.5755401 0.220998
1.4478 2.5721667 0.22062333
1.462 2.569175 0.22079
1.48515 2.57075 0.220305
1.5163 2.5795 0.22022
1.5553501 2.572525 0.2205525
1.5694 2.5653501 0.2208675
1.5865428 2.5690999 0.22063713
1.6026251 2.571475 0.22032751
1.6322714 2.5674427 0.22084285
1.6463201 2.5721002 0.220594
1.6710999 2.5709999 0.2208257
1.6898999 2.571125 0.22089501
1.7093667 2.5721002 0.22064224
1.730875 2.5685 0.22070752
1.74975 2.5655999 0.22045499
1.7734585 2.5710833 0.22059916
1.7914938 2.5686626 0.22087188
1.8094999 2.5721731 0.22107932
1.8285849 2.5695548 0.22105904
1.85129 2.5689449 0.22133851
1.8713458 2.5705426 0.22111998
1.8934524 2.570467 0.22126853
1.9117807 2.5719285 0.22119573
1.9310694 2.5708351 0.22082478
1.9508377 2.5697205 0.22151002
1.969816 2.569844 0.22127399
1.9899942 2.5708916 0.22163287
2.0088174 2.5705285 0.22153027
2.02896 2.5692503 0.22179101
2.0504978 2.5694666 0.22160044
2.070298 2.5693772 0.22187872
2.0907485 2.5698195 0.22199407
2.1098278 2.5692706 0.22224626
2.1298778 2.5699 0.22250633
2.1468291 2.5700533 0.22345144
0.47932002 2.5885999 0.22688
0.48704872 2.5918477 0.2283387
0.51163179 2.5884726 0.22434182
0.53052509 2.5907433 0.22409572
0.55002725 2.5878272 0.22482544
0.56887007 2.5864003 0.22571294
0.58953744 2.5895543 0.22522038
0.61221403 2.58921 0.22479849
0.62992853 2.5902858 0.22452071
0.65014732 2.5895267 0.22449599
0.66975588 2.5902002 0.22394824
0.69033802 2.5888 0.223015
0.71048957 2.5896618 0.22319235
0.73022163 2.5888391 0.2230711
0.75034827 2.5910234 0.22351177
0.76775432 2.5888748 0.22278124
0.78820229 2.5903454 0.22295228
0.81213719 2.5905557 0.22342055
0.82890224 2.5901444 0.22244835
0.84996146 2.5908315 0.2219791
0.86960936 2.5902791 0.22205947
0.89055914 2.5891743 0.22266653
0.90919226 2.5912318 0.22222275
0.9298718 2.5910413 0.22211882
0.94991088 2.589726 0.22209786
0.97033459 2.5901999 0.22188319
0.99036753 2.5914299 0.22174001
1.0105473 2.5893264 0.22171526
1.0315529 2.5918646 0.22239529
1.0491894 2.5896738 0.2215479
1.0692949 2.5898399 0.22155201
1.0891051 2.5893052 0.22165893
1.111209 2.5911636 0.22092453
1.1258 2.5884917 0.22074331
1.1492188 2.5882752 0.22108498
1.1695 2.5912666 0.22107334
1.1892563 2.5881503 0.22157563
1.2112263 2.5911052 0.22148474
1.227589 2.5898778 0.22100776
1.2487445 2.5896556 0.22102222
1.2705556 2.5907557 0.22073001
1.2905847 2.5894461 0.2209354
1.3080841 2.5876794 0.22179684
1.3313999 2.5859001 0.22118749
1.3514 2.5892003 0.22063801
1.3691751 2.5944002 0.22088
1.39485 2.58845 0.22086
1.4118333 2.5898669 0.22092001
1.4307001 2.585825 0.22113
1.452 2.5916998 0.22066335
1.4665 2.59075 0.22091499
1.5136667 2.5932665 0.22032666
1.52925 2.5904999 0.220745
1.55435 2.5924001 0.22071001
1.5617499 2.5987 0.22134501
1.5991 2.5897999 0.22172999
1.6312249 2.59565 0.2203825
1.6479999 2.5882332 0.22035001
1.6699222 2.5898666 0.22098443
1.6897001 2.59094 0.220596
1.7159667 2.5882335 0.22051667
1.7308143 2.5870144 0.22044286
1.7517065 2.5901802 0.22075135
1.7697248 2.5903563 0.22080937
1.7893999 2.5891166 0.22077112
1.8098751 2.5888166 0.22139458
1.830827 2.5893385 0.22094154
1.8515249 2.5880313 0.220865
1.8697238 2.58902 0.22111443
1.8868576 2.5909631 0.22137474
1.9104334 2.5916266 0.22096999
1.9285538 2.5897384 0.22122768
1.9503409 2.5884631 0.2211663
1.9697341 2.5905249 0.22146125
1.9906087 2.5898738 0.22167388
2.0094516 2.5903091 0.22154774
2.0278869 2.589664 0.22175516
2.0495205 2.5882974 0.22162381
2.0705938 2.5903091 0.22171713
2.0903873 2.5893528 0.22223237
2.111423 2.5904341 0.22185498
2.1301053 2.5903885 0.22236344
2.1466053 2.5881774 0.22288026
0.47926334 2.6160667 0.23586667
0.48712477 2.6090088 0.22862174
0.51064277 2.6062639 0.22466274
0.53127736 2.6103933 0.22316335
0.55210698 2.609231 0.22386232
0.57131314 2.6096461 0.22471461
0.59129077 2.6105924 0.22458921
0.60981929 2.6096938 0.22418468
0.63012749 2.6078751 0.22436251
0.64835358 2.6097143 0.22361073
0.66907823 2.6088264 0.22410785
0.69144225 2.6084776 0.22286054
0.71000504 2.6100688 0.22381563
0.730097 2.6083198 0.2230365
0.74905288 2.6081145 0.22379856
0.77046204 2.6103601 0.22312251
0.79042053 2.6102223 0.22250836
0.81107861 2.6102319 0.22258455
0.82912195 2.6097002 0.22249451
0.84845817 2.6085477 0.22275335
0.87287748 2.6104376 0.22214063
0.89068222 2.6107056 0.22302945
0.91115302 2.6102059 0.2223147
0.92881215 2.6102703 0.22226
0.94776779 2.6095946 0.2223489
0.97024292 2.6114528 0.22158059
0.98920518 2.6097355 0.22139473
1.0097474 2.6093788 0.22232367
1.0303158 2.6114528 0.22248735
1.0503445 2.6089389 0.22171722
1.0704445 2.6097608 0.22161335
1.0857249 2.6118374 0.22077374
1.1081916 2.6094749 0.22078417
1.1313707 2.6082413 0.22125117
1.1511 2.6108332 0.22106999
1.1715909 2.612391 0.22177729
1.1897353 2.6107764 0.22125351
1.2105645 2.6111178 0.22142881
1.22902 2.6125901 0.22083299
1.2489501 2.6089053 0.22087598
1.2723112 2.6093664 0.22113447
1.2881439 2.6108935 0.22096749
1.3136222 2.6046445 0.22093111
1.35165 2.6099501 0.220245
1.3636 2.6091499 0.220275
1.3848727 2.6091547 0.22074452
1.4110501 2.6101499 0.22021501
1.4300749 2.6061499 0.2205825
1.4503666 2.6101334 0.22035666
1.4735999 2.605 0.220305
1.491325 2.6071749 0.2205575
1.5232 2.6133001 0.22046
1.54985 2.6080372 0.22090125
1.5643166 2.60655 0.22123502
1.5949 2.6196001 0.22060999
1.6063666 2.6140668 0.22020333
1.632075 2.6114125 0.22058749
1.6496125 2.6087999 0.22048751
1.6661334 2.6132886 0.22124
1.693825 2.6092501 0.2206125
1.7096599 2.60818 0.22126201
1.72879 2.60811 0.220434
1.74851 2.60798 0.22076699
1.7709001 2.6112213 0.22091642
1.7907461 2.6112311 0.22093616
1.8093573 2.6076336 0.22083762
1.8303436 2.6086435 0.22110875
1.8534582 2.6100261 0.2213458
1.8704779 2.6113331 0.220815
1.8932427 2.611057 0.2212818
1.9093348 2.6092963 0.22132346
1.9302074 2.611037 0.22120665
1.9493111 2.6093225 0.2210089
1.9680843 2.6091578 0.22185612
1.9912521 2.6085219 0.22162695
2.0104759 2.6103122 0.22153032
2.0312541 2.6095657 0.22155859
2.0502355 2.6100903 0.22143872
2.0722711 2.6119516 0.2216287
2.0921378 2.611419 0.22196533
2.1103055 2.6105905 0.22207847
2.1296 2.6095438 0.22244398
2.1460783 2.6113753 0.2229875
0.47892666 2.6282332 0.235025
0.48606688 2.6293581 0.22818212
0.51512724 2.6311271 0.22511457
0.53265995 2.63077 0.22340798
0.54947937 2.630559 0.22457176
0.56969094 2.6292701 0.22452898
0.59310198 2.6266401 0.22610001
0.61190796 2.6310065 0.22427535
0.6292991 2.630317 0.22386168
0.64971405 2.629473 0.22532906
0.66801488 2.6316435 0.22353876
0.6914925 2.6288002 0.22346
0.71006829 2.6301 0.22316183
0.73158002 2.6293895 0.22350369
0.74958533 2.629379 0.22255157
0.76988256 2.6297066 0.22317
0.79049605 2.6306734 0.22261399
0.81099242 2.6309645 0.22208235
0.83156902 2.6289802 0.22263548
0.85245216 2.6302223 0.2229467
0.87129921 2.630054 0.22267078
0.88830692 2.6299901 0.22200501
0.90915811 2.6292865 0.22224502
0.93251473 2.6289296 0.22220233
0.94976598 2.6287069 0.22188202
0.97017455 2.6315615 0.22248615
0.99069357 2.6309652 0.2217675
1.0111201 2.62989 0.22226103
1.0311857 2.6313858 0.22212717
1.0502737 2.6308262 0.22167946
1.0702039 2.630652 0.2215828
1.0885334 2.6287222 0.22182721
1.1090062 2.6315627 0.22143504
1.130421 2.6313369 0.22118104
1.1496882 2.6298587 0.22120766
1.1667112 2.6316445 0.22128667
1.1899999 2.6293626 0.22129126
1.2098001 2.62972 0.22139335
1.2302467 2.6298399 0.22095601
1.2483906 2.6299951 0.22143239
1.2722927 2.6284282 0.22068787
1.29026 2.63062 0.22110601
1.30575 2.6285498 0.22044499
1.3335333 2.6258667 0.22072667
1.3502334 2.6290667 0.22066998
1.36894 2.6259398 0.22033799
1.3891 2.6285 0.22056
1.4094669 2.6265001 0.22104111
1.433275 2.6259999 0.22062498
1.4515799 2.6305401 0.22058198
1.4706571 2.6258714 0.22142284
1.4963 2.6365499 0.22198501
1.5102334 2.63375 0.220415
1.5303 2.62995 0.220265
1.55185 2.6305666 0.22060001
1.58878 2.6293399 0.22048199
1.6314 2.6272333 0.22028667
1.6514374 2.6290751 0.22056377
1.6706834 2.6298499 0.22069834
1.6845 2.6236999 0.22057
1.73145 2.627825 0.22077
1.7464833 2.6295998 0.220465
1.7680199 2.6275001 0.22093599
1.7928001 2.6268499 0.22063251
1.8116583 2.6303666 0.22100002
1.833228 2.6317444 0.22076611
1.8496468 2.6300468 0.22091867
1.8717601 2.6278601 0.22074202
1.8893787 2.6317108 0.22108997
1.9103 2.6280816 0.2212591
1.9290366 2.6277421 0.22106105
1.9506167 2.6289332 0.22132085
1.9711461 2.6308272 0.22127578
1.9895176 2.6291435 0.22131258
2.011193 2.6298552 0.22180034
2.0297067 2.6302133 0.22138898
2.0471861 2.6298308 0.2214769
2.0718293 2.6308296 0.2218706
2.0890498 2.6296263 0.22138599
2.1107872 2.6288311 0.22234333
2.1306317 2.6304426 0.22242019
2.1463144 2.6300163 0.22264002
0.47876501 2.6557002 0.234825
0.48831648 2.6495061 0.22851589
0.5116725 2.6524749 0.22458501
0.53352648 2.6487288 0.22493573
0.55139607 2.6491468 0.22444201
0.57113218 2.6489642 0.22445571
0.58979863 2.6499467 0.22325598
0.60826415 2.6519167 0.22347085
0.62872148 2.6494849 0.22477847
0.65121573 2.6488073 0.22430857
0.67135942 2.6487408 0.22400708
0.6908412 2.649188 0.2216606
0.71250999 2.6467876 0.22303751
0.73026836 2.6497157 0.22303629
0.75120544 2.6495667 0.222902
0.7697534 2.6491535 0.22231068
0.78947073 2.6495399 0.22258666
0.81029624 2.648031 0.22348686
0.83263874 2.6492686 0.22242874
0.85037541 2.6485543 0.22215924
0.86843777 2.6504664 0.22255445
0.88815624 2.6489499 0.22166874
0.91213 2.6529212 0.22141072
0.93079174 2.649281 0.22141716
0.94960481 2.6495612 0.22202262
0.9696573 2.6508791 0.22108631
0.99177808 2.6497047 0.22175997
1.007947 2.6510174 0.22146118
1.0296818 2.6506863 0.22224817
1.0486077 2.6488767 0.22186464
1.0707048 2.6502955 0.22175094
1.0900749 2.6492751 0.22133835
1.1105307 2.6508384 0.22106154
1.1302522 2.6514173 0.22179346
1.1474462 2.6506386 0.22117075
1.1683222 2.6503444 0.22115777
1.189415 2.6499 0.220952
1.208375 2.6490397 0.22153302
1.2315786 2.6516931 0.2211657
1.2503895 2.6501157 0.22175789
1.2702125 2.6500626 0.220615
1.2900922 2.649246 0.22062768
1.3115153 2.6519384 0.22113925
1.3256 2.6492333 0.22061332
1.35062 2.6479402 0.22088599
1.3703444 2.6465776 0.22115444
1.3819 2.64535 0.22225499
1.4023 2.6577001 0.22053501
1.4338 2.6492252 0.22138751
1.4562 2.6413 0.22025999
1.4881999 2.6433251 0.2206575
1.5123501 2.6463668 0.22060502
1.5274501 2.6412501 0.220055
1.559 2.6522999 0.22017001
1.57635 2.645375 0.22012
1.5892334 2.6503668 0.22027333
1.6049 2.6568999 0.22003999
1.6268749 2.6507249 0.2202675
1.6493 2.6484668 0.22095667
1.6680751 2.6492124 0.22079
1.6873666 2.6493499 0.22045499
1.7156 2.64555 0.221055
1.7331858 2.6515858 0.22058429
1.7494334 2.6480501 0.22123669
1.7697545 2.649291 0.22091728
1.7900299 2.6500001 0.220624
1.8117599 2.64995 0.22087701
1.8298221 2.6485109 0.22095221
1.8493932 2.64938 0.22074731
1.8704001 2.6485741 0.2211621
1.8904428 2.6494241 0.22139189
1.9091357 2.6521504 0.22111215
1.9320347 2.6497262 0.22135216
