# .PCD v0.7 - Point Cloud Data file format
VERSION 0.7
FIELDS x y z
SIZE 4 4 4
TYPE F F F
COUNT 1 1 1
WIDTH 1444
HEIGHT 1
VIEWPOINT 0 0 0 1 0 0 0
POINTS 1444
DATA ascii
1.914808 -21.224239 0.62387276
1.8489902 -21.240108 0.62416589
1.7868021 -21.255461 0.62445909
1.7192086 -21.251007 0.62416589
1.652438 -21.256302 0.62416589
1.5863973 -21.271357 0.62445909
1.5174196 -21.246326 0.62357962
1.4520314 -21.270933 0.62416589
1.3799835 -21.195593 0.62182051
1.3152509 -21.229753 0.62270004
1.2573889 -21.383455 0.62709767
1.0686781 -21.653927 0.63472015
1.0025632 -21.617062 0.63354743
0.93985742 -21.739941 0.63706553
0.80324346 -21.745417 0.63706553
0.53189641 -21.833735 0.63941091
0.46201366 -21.775337 0.63765192
0.39488435 -21.84664 0.63970411
0.3254903 -21.7978 0.63823825
0.25652736 -21.758734 0.63706553
0.19232754 -21.799381 0.63823825
0.12330799 -21.709919 0.63559973
-0.080116794 -21.370264 0.62563181
-0.14725307 -21.369907 0.62563181
-0.21448559 -21.379335 0.625925
-0.2812624 -21.34857 0.62504548
-0.34897149 -21.387558 0.62621814
-0.41654456 -21.406343 0.62680447
-0.63086063 -21.841099 0.63970411
-0.69629872 -21.739101 0.63677239
-0.76392001 -21.826847 0.63941091
-0.82945943 -21.744432 0.63706553
-0.90186614 -21.841593 0.6399973
-0.96783167 -21.778736 0.63823825
-1.1794697 -21.888422 0.6417563
-1.248795 -21.894588 0.64204949
-1.3157786 -21.860624 0.64116997
-1.3875962 -21.906263 0.64263588
-1.4498028 -21.802057 0.63970411
-1.5245173 -21.88714 0.64234269
-1.7095064 -21.602751 0.63442701
-1.7675576 -21.477728 0.63090897
-1.8338152 -21.502268 0.63178843
-1.9031138 -21.516314 0.63237476
-1.968881 -21.49032 0.63178843
-2.0373259 -21.49398 0.63208163
-2.0951216 -21.387991 0.62914985
-2.1753452 -21.510592 0.63296115
-2.2449808 -21.523535 0.63354743
-2.3125877 -21.516375 0.63354743
-2.381269 -21.51894 0.63384062
-2.4511173 -21.531216 0.63442701
-2.5233846 -21.563124 0.63559973
-2.5899215 -21.545166 0.63530654
-2.6600378 -21.556763 0.63589281
-2.7277472 -21.5483 0.63589281
-2.8365161 -21.856838 0.6452744
-2.9064825 -21.857727 0.6455676
-2.9859059 -21.927727 0.64791298
-3.0935988 -22.225687 0.65700132
-3.1479311 -22.107 0.65377641
-3.2619371 -22.403646 0.66286474
-3.2941148 -22.136223 0.65524232
-3.3516424 -22.046703 0.65289688
-3.3856764 -21.808876 0.64615393
-3.6540079 -21.75539 0.64586073
-3.7475994 -21.891596 0.65025836
-3.8833275 -21.857775 0.64996517
-3.9768538 -21.983177 0.6540696
-4.1995697 -21.656693 0.64586073
-4.2695169 -21.6532 0.64615393
-4.3394837 -21.649483 0.64644706
-4.4214258 -21.704308 0.64849931
-4.9534135 -21.865919 0.65641499
-5.0444493 -21.947672 0.6593467
-5.3814626 -22.443516 0.67576444
-5.4142022 -22.271086 0.67107368
-5.4554691 -22.137495 0.66755557
-5.50805 -22.052359 0.66550332
-5.5920048 -22.09309 0.66726243
-5.63274 -21.979568 0.66433066
-5.6816874 -21.884359 0.66198528
-5.8036566 -21.79027 0.66022623
-5.877285 -21.791233 0.66081256
-5.9115143 -21.647299 0.65700132
-6.0114255 -21.74424 0.66051936
-6.1012387 -21.802259 0.66286474
-6.1751456 -21.802219 0.66345114
-6.2326021 -21.744276 0.66227847
-6.2981009 -21.714987 0.66198528
-6.4789214 -21.839031 0.66696924
-6.5532398 -21.837717 0.66755557
-6.6218128 -21.81702 0.66755557
-6.6727357 -21.738773 0.66579652
-6.835743 -22.023211 0.67517805
-6.895925 -21.973015 0.67429858
-7.0582509 -22.005404 0.67664397
-7.1304288 -21.99263 0.67693716
-7.2181478 -22.027117 0.67869616
-7.4261456 -22.189882 0.68514597
-7.4958205 -22.166443 0.68514597
-7.5686507 -22.152245 0.68543911
-7.6968732 -22.298447 0.69071627
-7.7537317 -22.236399 0.68954355
-7.7804108 -22.089357 0.68573231
-7.8999901 -22.206079 0.69012988
-7.9624653 -22.173134 0.68983674
-8.0184622 -22.11042 0.68866408
-8.039794 -21.953705 0.68455964
-8.1191168 -21.956465 0.68543911
-8.3612165 -21.972401 0.68837088
-8.5857821 -22.143124 0.69540703
-8.9283571 -22.814224 0.71739501
-8.8605289 -22.432753 0.70625448
-9.0490112 -22.292673 0.70449537
-9.1114292 -22.245634 0.7039091
-9.2041636 -22.272333 0.70566809
-9.2663994 -22.224852 0.70508176
-9.4175186 -22.389141 0.71123838
-9.5034189 -22.396254 0.71241111
-9.522625 -22.246815 0.70859987
-9.6321344 -22.319426 0.71182472
-9.7022047 -22.289055 0.71182472
-9.7239866 -22.148624 0.70830667
-9.7692518 -22.063124 0.70654762
-9.8344431 -22.023195 0.70625448
-9.9199915 -22.02865 0.70742714
-10.026325 -22.079296 0.71006566
-10.112275 -22.084047 0.71123838
-10.375531 -22.116266 0.71534282
-10.457776 -22.110672 0.71622235
-10.552987 -22.131849 0.7179814
-10.643639 -22.132771 0.71915406
-10.743627 -22.162193 0.72120631
-11.010592 -22.532511 0.73439908
-11.125473 -22.587488 0.73733079
-11.227972 -22.626019 0.73967618
-11.290059 -22.57275 0.73908985
-11.306949 -22.43005 0.7355718
-11.485971 -22.608318 0.74260795
-11.552387 -22.563225 0.74231476
-11.618633 -22.517937 0.74202156
-11.763066 -22.623236 0.74671233
-11.875816 -22.665865 0.74935091
-11.862995 -22.469316 0.74407381
-11.952297 -22.467241 0.74524653
2.0446763 -21.215891 0.49392569
1.9761574 -21.202303 0.49346152
1.9122307 -21.238276 0.49415782
1.8437672 -21.22426 0.49369362
1.7787496 -21.249872 0.49415782
1.7148876 -21.24509 0.49392569
1.6473619 -21.240408 0.49369362
1.5798824 -21.235508 0.49346152
1.5145838 -21.260309 0.49392569
1.4457452 -21.235041 0.49322939
1.3731886 -21.149693 0.49114043
1.3116764 -21.233727 0.49299729
1.2596107 -21.487246 0.49879998
1.1987551 -21.61088 0.50158525
1.1308566 -21.614538 0.50158525
1.0668818 -21.697866 0.50344211
1.002499 -21.700935 0.50344211
0.93647283 -21.75392 0.50460267
0.8677268 -21.746765 0.50437057
0.79414082 -21.70956 0.50344211
0.59603053 -21.815912 0.50576323
0.52555078 -21.737722 0.50390637
0.4587349 -21.809231 0.50553107
0.38841984 -21.710609 0.50321007
0.32169506 -21.811684 0.50553107
0.25165033 -21.682631 0.50251371
0.18447156 -21.793282 0.50506693
0.11541004 -21.683784 0.50251371
0.047355898 -21.714033 0.50321007
-0.087673031 -21.363998 0.49508625
-0.15112992 -21.373642 0.49531838
-0.21827646 -21.37306 0.49531838
-0.28568602 -21.392262 0.49578255
-0.3525624 -21.371267 0.49531838
-0.42302248 -21.539976 0.49926421
-0.4940924 -21.688461 0.50274581
-0.56429195 -21.766754 0.50460267
-0.63180262 -21.734894 0.50390637
-0.70136285 -21.772772 0.50483477
-0.77011293 -21.780451 0.50506693
-0.83968574 -21.807894 0.50576323
-0.90736288 -21.785172 0.50529903
-0.97199887 -21.782383 0.50529903
-1.0366161 -21.699333 0.50344211
-1.1154397 -21.905643 0.5083164
-1.178322 -21.792219 0.50576323
-1.2519108 -21.878241 0.5078522
-1.3176291 -21.824305 0.50669163
-1.3893504 -21.869942 0.5078522
-1.4527357 -21.785667 0.50599533
-1.7082202 -21.536474 0.50065684
-1.767197 -21.471529 0.49926421
-1.8363439 -21.485792 0.49972838
-1.9084677 -21.489542 0.49996051
-1.978714 -21.513308 0.50065684
-2.0359256 -21.437674 0.49903211
-2.1032641 -21.431171 0.49903211
-2.1786363 -21.50403 0.50088894
-2.2482586 -21.516966 0.5013532
-2.3179834 -21.529676 0.50181735
-2.3867099 -21.532225 0.50204951
-2.4566073 -21.544487 0.50251371
-2.5254421 -21.546593 0.50274581
-2.5931203 -21.538551 0.50274581
-2.6632235 -21.550144 0.50321007
-2.7447176 -21.681002 0.50645953
-2.8488216 -21.949873 0.51295859
-2.9177651 -21.940813 0.51295859
-3.0001612 -22.030598 0.51527965
-3.1176317 -22.367624 0.52340341
-3.1977587 -22.427 0.52502817
-3.2653167 -22.397058 0.52456397
-3.3327179 -22.366913 0.52409977
-3.3307977 -21.88192 0.51295859
-3.3979905 -21.861469 0.51272649
-3.4619565 -21.821064 0.51203012
-3.8094423 -21.793539 0.51272649
-3.8968341 -21.910099 0.51574385
-3.9638667 -21.887911 0.51551175
-4.1362572 -21.672815 0.51133376
-4.2043238 -21.659714 0.51133376
-4.2742844 -21.656208 0.51156592
-4.3481927 -21.672081 0.51226223
-4.4362216 -21.756273 0.51458335
-4.5892968 -21.806234 0.51644021
-4.9644208 -21.877703 0.51992178
-5.0600319 -21.97891 0.52270705
-5.1297641 -21.983273 0.52317131
-5.3115783 -22.443758 0.53454459
-5.3377509 -22.242252 0.53013456
-5.3792486 -22.108805 0.52734923
-5.4558587 -22.120916 0.52804559
-5.5253267 -22.103666 0.52804559
-5.5947399 -22.086199 0.52804559
-5.65416 -22.029779 0.52711713
-5.7107663 -21.96353 0.52595663
-5.7326651 -21.782127 0.5220108
-5.8036418 -21.77367 0.5222429
-5.8798299 -21.784285 0.52293921
-5.9113531 -21.630692 0.51968968
-6.0325775 -21.804726 0.52433187
-6.1064396 -21.80492 0.52479607
-6.1830878 -21.814484 0.52549237
-6.2295446 -21.718073 0.52363551
-6.3088865 -21.736801 0.52456397
-6.565239 -21.848719 0.5287419
-6.6155133 -21.781313 0.52758139
-6.6956468 -21.798649 0.5285098
-6.8390889 -22.005457 0.53408039
-7.2330117 -22.058071 0.53802621
-7.3400021 -22.149118 0.54081154
-7.4032016 -22.106989 0.54034728
-7.5270777 -22.244614 0.54429311
-7.6583576 -22.400597 0.54870319
-7.6536436 -22.159082 0.5433647
-7.8154163 -22.399233 0.5498637
-7.7827539 -22.082268 0.54266834
-7.8984928 -22.200367 0.54614997
-7.9715786 -22.184853 0.54638207
-8.0071402 -22.06572 0.54406101
-8.0420332 -21.946585 0.54173994
-8.1213455 -21.949339 0.54243624
-8.3669701 -21.974602 0.54498947
-8.7326365 -22.508802 0.55961221
-8.6721048 -22.146122 0.55125636
-8.9400187 -22.62085 0.5637902
-9.0436125 -22.277811 0.55729121
-9.0756683 -22.156773 0.55497009
-9.1795912 -22.211309 0.55705911
-9.3577242 -22.245348 0.55938017
-9.4744196 -22.326279 0.56216544
-9.5641804 -22.342358 0.56332594
-9.5946999 -22.220417 0.56100494
-9.6884069 -22.245161 0.56239754
-9.7180443 -22.123079 0.56007648
-9.7794008 -22.074158 0.55961221
-9.820159 -21.979429 0.55798751
-9.9384336 -22.057854 0.56077284
-10.036624 -22.090237 0.56239754
-10.381787 -22.118027 0.56634337
-10.472599 -22.130486 0.56750393
-10.559289 -22.133572 0.56843239
-10.6461 -22.136328 0.56936079
-10.815885 -22.309687 0.57469928
-11.039526 -22.589981 0.58282304
-11.114858 -22.564157 0.58305514
-11.216805 -22.59181 0.5846799
-11.319038 -22.619047 0.58630466
-11.313519 -22.431623 0.58235884
-11.479051 -22.58313 0.58723313
-11.5864 -22.618141 0.58908999
-11.671156 -22.60828 0.58978629
-11.737511 -22.562634 0.58955419
-11.873309 -22.649614 0.59280366
-11.897716 -22.523802 0.59048259
-11.959025 -22.468662 0.59001839
2.0448089 -21.218325 0.37510067
1.9790665 -21.2346 0.37527695
1.9114504 -21.230753 0.37510067
1.8456072 -21.246614 0.37527695
1.7788498 -21.252308 0.37527695
1.7083639 -21.258091 0.37527695
1.6429716 -21.23316 0.37474817
1.5769968 -21.24819 0.37492442
1.5095279 -21.243065 0.37474817
1.4441364 -21.267653 0.37510067
1.3721533 -21.192263 0.37369052
1.3080245 -21.236389 0.37439561
1.1955141 -21.62355 0.38109383
1.1286154 -21.647169 0.38144636
1.0653602 -21.670397 0.38179892
1.0009457 -21.75354 0.38320908
0.93260002 -21.756577 0.38320908
0.86345303 -21.739418 0.38285652
0.7944231 -21.722038 0.38250399
0.59020889 -21.74855 0.38285652
0.52307618 -21.800278 0.38373789
0.45541656 -21.841797 0.38444296
0.38900468 -21.75308 0.38285652
0.32168949 -21.824177 0.38409039
0.24795699 -21.705151 0.3819752
0.18091525 -21.845795 0.38444296
0.11142346 -21.676285 0.38144636
-0.091607824 -21.386421 0.37633458
-0.15513471 -21.396051 0.37651083
-0.22214223 -21.375463 0.37615833
-0.28970245 -21.404652 0.37668711
-0.35661072 -21.383644 0.37633458
-0.42498118 -21.442396 0.3773922
-0.49787021 -21.680853 0.38162264
-0.56781226 -21.749147 0.38285652
-0.63555014 -21.727268 0.38250399
-0.70477885 -21.755144 0.3830328
-0.77347708 -21.762815 0.38320908
-0.84339237 -21.80024 0.38391414
-0.9068197 -21.767673 0.38338533
-0.97744197 -21.814659 0.38426667
-1.0411729 -21.711611 0.38250399
-1.1206206 -21.927912 0.38638192
-1.1867913 -21.874363 0.38550055
-1.2595224 -21.940401 0.38673443
-1.3242079 -21.866474 0.38550055
-1.3954431 -21.902121 0.38620564
-1.4542258 -21.747988 0.38356161
-1.7139137 -21.558558 0.38056505
-1.7758621 -21.483316 0.37933117
-1.8442008 -21.487593 0.37950739
-1.9125812 -21.491652 0.37968367
-1.9810082 -21.495493 0.37985995
-2.0428841 -21.469614 0.37950739
-2.1054273 -21.413338 0.37862608
-2.1827929 -21.506092 0.38038877
-2.2534702 -21.528959 0.38091755
-2.3243132 -21.551596 0.38144636
-2.3909011 -21.53425 0.38127011
-2.4608119 -21.546501 0.38162264
-2.5273235 -21.528734 0.38144636
-2.5973408 -21.540541 0.38179892
-2.6674576 -21.55212 0.38215145
-2.7439728 -21.613064 0.38338533
-2.8518863 -21.911694 0.38884968
-3.0032554 -22.02265 0.39114115
-3.0392377 -21.77545 0.38691071
-3.198127 -22.399265 0.39819196
-3.3402781 -22.388617 0.39836824
-3.3322232 -21.864035 0.38920224
-3.4008946 -21.853458 0.38920224
-3.4601169 -21.783419 0.38814461
-3.8049467 -21.766441 0.38884968
-3.9066236 -21.941406 0.3921988
-4.0652418 -21.648123 0.3876158
-4.1369858 -21.654886 0.38796833
-4.2088113 -21.661411 0.38832086
-4.2826576 -21.677509 0.38884968
-4.3527079 -21.67375 0.38902596
-4.4327779 -21.718746 0.39008355
-4.9674911 -21.889889 0.39501911
-5.0609202 -21.98135 0.39695805
-5.2709808 -22.568993 0.40788674
-5.3441629 -22.56205 0.40806302
-5.3986669 -22.477098 0.40682915
-5.4077296 -22.207453 0.40224615
-5.496644 -22.268009 0.40365627
-5.5083189 -22.017847 0.39942583
-5.5971251 -22.077967 0.40083599
-5.6589923 -22.031221 0.40030715
-5.7142673 -21.97563 0.39960212
-5.7450676 -21.81254 0.39695805
-5.8109879 -21.784725 0.3967818
-5.8820057 -21.776012 0.39695805
-5.9187284 -21.641697 0.39484283
-6.0320549 -21.786804 0.3978394
-6.1139646 -21.815882 0.39872074
-6.1851974 -21.806187 0.39889702
-6.2398767 -21.738598 0.39801568
-6.3081393 -21.718887 0.39801568
-6.3763404 -21.698963 0.39801568
-6.4929237 -21.841747 0.40101224
-6.55863 -21.811666 0.40083599
-6.6213007 -21.771822 0.40048343
-6.7014265 -21.789141 0.40118852
-6.8470645 -22.016205 0.40577149
-6.9822311 -21.963223 0.40559524
-7.2256265 -22.021193 0.40788674
-7.3514314 -22.169205 0.41105959
-7.3956218 -22.07016 0.40964943
-7.5290661 -22.236217 0.41317481
-7.6085973 -22.240835 0.41370362
-7.6914983 -22.254622 0.41440871
-7.8273029 -22.419136 0.41793409
-7.8078933 -22.139851 0.41317481
-7.9277439 -22.256493 0.41581887
-7.9700594 -22.167011 0.41458496
-8.0191813 -22.085476 0.41352734
-8.0437717 -21.938143 0.41123587
-8.1265402 -21.950268 0.41194093
-8.3722172 -21.975479 0.4138799
-8.4627514 -22.005058 0.4149375
-8.7924042 -22.649443 0.4276289
-8.9142656 -22.762901 0.43027294
-9.0041122 -22.781275 0.43115425
-9.0886774 -22.17601 0.42181203
-9.2079782 -22.26746 0.4241035
-9.2817392 -22.247648 0.42427978
-9.3748617 -22.27367 0.42533737
-9.5112324 -22.400558 0.42833397
-9.5658102 -22.333805 0.4276289
-9.6200619 -22.26693 0.42692381
-9.7059479 -22.273262 0.4276289
-9.7235661 -22.123669 0.42533737
-9.7768126 -22.056452 0.42463231
-9.8256474 -21.97999 0.42375097
-9.9357491 -22.040161 0.42551365
-10.033909 -22.07255 0.42674753
-10.12435 -22.097218 0.42780513
-10.383169 -22.109417 0.42992038
-10.478249 -22.130907 0.430978
-10.564954 -22.133972 0.43168309
-10.647445 -22.127699 0.43221188
-10.778008 -22.220081 0.43467966
-11.036636 -22.572336 0.44225922
-11.129598 -22.582392 0.44314057
-11.231628 -22.609995 0.44437444
-11.324989 -22.619299 0.44525582
-11.31099 -22.424915 0.44208297
-11.490139 -22.603172 0.44631341
-11.579329 -22.602556 0.44701847
-11.631931 -22.530533 0.44631341
-11.739577 -22.564835 0.44772357
-11.875411 -22.651812 0.45019132
-11.890466 -22.508308 0.4480761
-11.95642 -22.462017 0.44789985
2.0385189 -21.230453 0.25266886
1.9672021 -21.18697 0.25207546
1.8978207 -21.203337 0.25219417
1.8340422 -21.198912 0.25207546
1.7674348 -21.204569 0.25207546
1.7016068 -21.219984 0.25219417
1.6364646 -21.245167 0.25243151
1.5689788 -21.240231 0.25231284
1.5059516 -21.244791 0.25231284
1.4378554 -21.229464 0.25207546
1.3698703 -21.213919 0.25183812
1.2964705 -21.168442 0.25124472
1.2429229 -21.331915 0.25314361
1.0521097 -21.632504 0.2565853
0.98928171 -21.665497 0.25694135
0.92626721 -21.698309 0.2572974
0.85313451 -21.671286 0.25694135
0.78468853 -21.663866 0.25682265
0.58127499 -21.700287 0.25717869
0.51333249 -21.712004 0.2572974
0.4463371 -21.773491 0.25800946
0.37639228 -21.684805 0.25694135
0.31374469 -21.805807 0.25836551
0.24358898 -21.656704 0.2565853
0.17307879 -21.827375 0.25860286
0.09990938 -21.647842 0.2564666
-0.095193893 -21.357883 0.25302491
-0.16221265 -21.347479 0.25290623
-0.23311517 -21.356823 0.25302491
-0.30035156 -21.365984 0.25314361
-0.3637436 -21.364998 0.25314361
-0.43106613 -21.373749 0.25326228
-0.64472097 -21.778524 0.25812814
-0.71214765 -21.746408 0.25777209
-0.78262961 -21.80402 0.25848415
-0.84837711 -21.731514 0.25765342
-0.92003614 -21.808664 0.25860286
-0.98201734 -21.745905 0.25789076
-1.0483893 -21.702761 0.25741604
-1.1929463 -21.84551 0.25919625
-1.2621492 -21.851639 0.25931495
-1.330792 -21.847565 0.25931495
-1.4000632 -21.853254 0.2594336
-1.466691 -21.818819 0.25907758
-1.7279766 -21.639187 0.25717869
-1.7818435 -21.464251 0.25516114
-1.8501278 -21.46851 0.25527984
-1.9184563 -21.472551 0.25539851
-1.9868283 -21.476372 0.25551718
-2.0533338 -21.460073 0.25539851
-2.1089082 -21.334108 0.25397435
-2.1884489 -21.486919 0.25587323
-2.2590823 -21.509771 0.25622928
-2.3288021 -21.522448 0.2564666
-2.3941867 -21.495152 0.25622928
-2.4639852 -21.507391 0.2564666
-2.533884 -21.519405 0.25670397
-2.6014769 -21.511339 0.25670397
-2.6727438 -21.532829 0.25706002
-2.7416432 -21.534246 0.25717869
-2.8494735 -21.832888 0.26085776
-2.9140666 -21.794094 0.26050171
-3.0031474 -21.963675 0.26263794
-3.0429819 -21.746181 0.26014569
-3.1978602 -22.340294 0.26738513
-3.3381617 -22.319761 0.26738513
-3.3281024 -21.785299 0.26109514
-3.542907 -21.812183 0.2618072
-3.7788956 -21.955194 0.26394343
-3.8270974 -21.825031 0.26251927
-4.0471983 -21.866648 0.26346871
-4.0732532 -21.627825 0.26073909
-4.1392879 -21.625465 0.26085776
-4.2129455 -21.6418 0.26121381
-4.2809143 -21.628458 0.26121381
-4.3547649 -21.644308 0.26156983
-4.4247465 -21.640316 0.26168853
-4.559907 -21.949371 0.26560494
-4.6164384 -21.876238 0.26489288
-4.7040215 -21.949617 0.26596099
-4.9950132 -21.957022 0.26679173
-5.0713849 -21.990818 0.26738513
-5.1313262 -21.935835 0.26691043
-5.2210093 -22.007164 0.26797855
-5.2877798 -21.980932 0.26785988
-5.363924 -21.993355 0.26821592
-5.4450021 -22.024925 0.26880929
-5.4971404 -21.939819 0.26797855
-5.5980587 -22.048426 0.26952136
-5.6473503 -21.953262 0.26857194
-5.7289104 -21.983791 0.26916534
-5.7519693 -21.79167 0.26702911
-5.8152323 -21.754171 0.26679173
-5.8823652 -21.746475 0.26691043
-5.9321494 -21.660383 0.26607966
-6.0188851 -21.709085 0.26691043
-6.1124868 -21.766018 0.26785988
-6.1825118 -21.767021 0.26809722
-6.2370415 -21.699442 0.26750383
-6.3023863 -21.670139 0.26738513
-6.3789091 -21.67901 0.26774117
-6.4840961 -21.783443 0.26928401
-6.5640397 -21.801262 0.26975873
-6.6354132 -21.790098 0.2698774
-6.6802745 -21.692699 0.26892799
-6.837647 -21.957996 0.27248836
-6.9396534 -22.041315 0.27379385
-7.0141234 -22.049212 0.27414989
-7.1078629 -22.103216 0.27509934
-7.1587071 -22.023724 0.27438724
-7.2653389 -22.115114 0.2758114
-7.3253207 -22.063711 0.27545536
-7.4136963 -22.097466 0.27616742
-7.5216312 -22.187696 0.27759159
-7.5621185 -22.078825 0.27652347
-7.6641636 -22.149448 0.27771026
-7.7370119 -22.134699 0.27782896
-7.8031807 -22.100855 0.27771026
-7.9028215 -22.16099 0.27877837
-7.9215474 -21.994949 0.27699819
-8.0141182 -22.046524 0.27794763
-8.0557575 -21.94615 0.27699819
-8.1215324 -21.900564 0.27676085
-8.3701181 -21.945948 0.27830365
-8.4641857 -21.984859 0.27913442
-8.6129427 -22.163189 0.28174537
-8.7081013 -22.201176 0.28257614
-8.7704401 -22.155117 0.28233877
-9.131732 -22.246647 0.28494972
-9.2015762 -22.217848 0.28494972
-9.2597589 -22.161154 0.28459367
-9.3720827 -22.233301 0.28589916
-9.4575443 -22.240551 0.28637388
-9.5194798 -22.192352 0.28613651
-9.6328535 -22.263275 0.287442
-9.6788664 -22.188774 0.2868486
-9.8426104 -21.99618 0.28554311
-9.9075499 -21.956036 0.28542444
-10.030343 -22.043108 0.28696728
-10.120404 -22.056925 0.28756067
-10.383582 -22.089043 0.28922218
-10.45721 -22.065348 0.28934085
-10.56098 -22.104559 0.2902903
-10.643394 -22.098295 0.29064634
-10.747721 -22.136702 0.29159579
-10.909556 -22.291418 0.29408804
-11.028216 -22.355667 0.29539353
-11.120663 -22.365673 0.29598692
-11.177426 -22.30381 0.2956309
-11.234539 -22.252697 0.29539353
-11.385414 -22.366795 0.29741108
-11.460192 -22.339811 0.29752976
-11.544793 -22.34124 0.29800448
-11.642646 -22.358068 0.29871657
-11.740716 -22.3745 0.29942864
-11.81095 -22.337505 0.29942864
-11.899881 -22.335585 0.29990333
1.9501845 -21.162664 -0.85569936
1.8863552 -21.198545 -0.85690856
1.8234502 -21.204048 -0.85690856
1.7559993 -21.199715 -0.85650551
1.6885936 -21.195166 -0.85610247
1.6219988 -21.200367 -0.85610247
1.5561213 -21.215322 -0.85650551
0.69134253 -21.231087 -0.85529631
0.49215087 -21.276617 -0.85690856
0.4251065 -21.268068 -0.85650551
0.35845971 -21.279289 -0.85690856
0.29174659 -21.290302 -0.85731167
0.22835392 -21.271091 -0.85650551
0.16152768 -21.271704 -0.85650551
0.09479402 -21.292089 -0.85731167
0.024216212 -21.312269 -0.8581177
-0.038986508 -21.292265 -0.85731167
-0.10592502 -21.302027 -0.85771465
-0.17300375 -21.321573 -0.85852081
-0.23976687 -21.300941 -0.85771465
-0.30710831 -21.330057 -0.85892385
-0.37411717 -21.328987 -0.85892385
-0.44091827 -21.317717 -0.85852081
-0.5081231 -21.326214 -0.85892385
-0.57485211 -21.314524 -0.85852081
-0.64270532 -21.342577 -0.85973001
-0.70668203 -21.360548 -0.86053616
-0.77306634 -21.338253 -0.85973001
-0.84087968 -21.355686 -0.86053616
-0.90881014 -21.372904 -0.86134219
-0.97595066 -21.369944 -0.86134219
-1.0440507 -21.386734 -0.86214834
-1.1112339 -21.383348 -0.86214834
-1.1784062 -21.379751 -0.86214834
-1.2461456 -21.38592 -0.86255139
-1.3139353 -21.391872 -0.8629545
-1.3804921 -21.377666 -0.86255139
-1.4496632 -21.403133 -0.86376065
-1.7192994 -21.393185 -0.86416364
-1.7852483 -21.417862 -0.86537284
-1.8233303 -21.073681 -0.85166872
-1.8824066 -20.988232 -0.84844422
-1.95294 -21.031961 -0.85045958
-2.0209091 -21.045614 -0.85126567
-2.0840647 -21.009333 -0.85005653
-2.1500573 -21.002682 -0.85005653
-2.2181206 -21.015696 -0.85086262
-2.2841325 -21.008625 -0.85086262
-2.3534477 -21.031136 -0.85207182
-2.4195073 -21.023638 -0.85207182
-2.485543 -21.015934 -0.85207182
-2.5551608 -21.037781 -0.85328102
-2.6755016 -21.465929 -0.87101567
-2.7467189 -21.487152 -0.87222487
-2.8142092 -21.478418 -0.87222487
-2.8843253 -21.489277 -0.87303102
-2.9494307 -21.490524 -0.87343407
-3.0197046 -21.500942 -0.87424016
-3.0886552 -21.50124 -0.87464321
-3.1576345 -21.501316 -0.87504631
-3.2266479 -21.501173 -0.87544936
-3.2987139 -21.520561 -0.87665856
-3.3678489 -21.519964 -0.87706167
-3.438586 -21.529011 -0.8778677
-3.5110176 -21.547689 -0.87907696
-3.859349 -21.569242 -0.88230139
-3.9127855 -21.478367 -0.87907696
-3.9038377 -21.053324 -0.86214834
-4.0984159 -21.016312 -0.86214834
-4.1758571 -21.041811 -0.86376065
-4.2439141 -21.038382 -0.86416364
-4.3103213 -21.045277 -0.86496979
-4.378449 -21.041414 -0.86537284
-4.4564638 -21.065884 -0.86698514
-4.5231357 -21.072107 -0.86779118
-4.5914388 -21.067558 -0.86819422
-4.6597576 -21.062786 -0.86859733
-4.923243 -21.300272 -0.88028616
-5.0721526 -21.634932 -0.89479631
-5.1424046 -21.628613 -0.89519936
-5.2196851 -21.651207 -0.89681166
-5.2900486 -21.644409 -0.89721471
-5.2932115 -21.365803 -0.88633204
-5.3019691 -21.116467 -0.87665856
-5.384275 -21.17812 -0.87988305
-5.4557614 -21.180452 -0.8806892
-5.5298357 -21.192213 -0.88189834
-5.5938349 -21.165075 -0.8814953
-5.6628804 -21.157051 -0.88189834
-5.7397647 -21.177734 -0.88351065
-5.8062682 -21.159599 -0.88351065
-5.8700428 -21.131624 -0.88310754
-5.9472089 -21.151556 -0.88471979
-6.0245585 -21.171213 -0.88633204
-6.0910401 -21.152182 -0.88633204
-6.2915096 -21.593439 -0.90567899
-6.378119 -21.65136 -0.90890348
-6.4546614 -21.659945 -0.91011268
-6.5140319 -21.610857 -0.90890348
-6.4945526 -21.303537 -0.89681166
-6.5379167 -21.206635 -0.89358717
-6.6980438 -21.250912 -0.89721471
-6.7738662 -21.258326 -0.89842385
-6.8467369 -21.255964 -0.89923
-6.9320264 -21.291361 -0.90164834
-7.0051227 -21.288462 -0.9024545
-7.0688171 -21.256868 -0.90205139
-7.1482849 -21.272446 -0.90366369
-7.2214985 -21.268806 -0.90446979
-7.2980008 -21.27437 -0.90567899
-7.5053897 -21.657337 -0.92301065
-7.629477 -21.793987 -0.92986268
-7.7145505 -21.817015 -0.93187797
-7.7926755 -21.831675 -0.93349022
-7.8713818 -21.835287 -0.93469936
-7.9467721 -21.829229 -0.93550551
-8.0290928 -21.841675 -0.93711782
-8.1011457 -21.82571 -0.93752086
-8.1906977 -21.856297 -0.9399392
-8.5117769 -21.872707 -0.94517899
-8.5914021 -21.873762 -0.94638819
-8.6747971 -21.883821 -0.94800037
-8.7620506 -21.902851 -0.95001572
-8.7972536 -21.403381 -0.93187797
-8.8606253 -21.366407 -0.93147486
-8.9662495 -21.430653 -0.93550551
-9.0335312 -21.402378 -0.93550551
-9.1046371 -21.383087 -0.93590856
-9.1877375 -21.401892 -0.93792385
-9.278738 -21.427942 -0.94034231
-9.350008 -21.407845 -0.94074535
-9.4333191 -21.414944 -0.94235754
-9.5127134 -21.412601 -0.9435668
-9.604435 -21.437326 -0.94598514
-9.9061069 -21.926125 -0.96895963
-9.9873629 -21.922178 -0.97016883
-10.106211 -21.999659 -0.97500551
-10.070336 -21.741116 -0.96492898
-10.321733 -21.5786 -0.9633168
-10.40625 -21.571257 -0.964526
-10.495805 -21.583391 -0.96654123
-10.572351 -21.568256 -0.96734738
-10.667254 -21.599512 -0.97016883
-10.73951 -21.574841 -0.97057188
-11.008774 -21.94293 -0.98870963
-11.149762 -22.050922 -0.99515855
-11.241655 -22.060305 -0.99717396
-11.329155 -22.060436 -0.99878615
-11.425947 -22.077986 -1.0012046
-11.518342 -22.086283 -1.0032198
-11.615548 -22.103064 -1.0056382
-11.698953 -22.092957 -1.0068474
-11.787107 -22.09136 -1.0084596
-11.894287 -22.124636 -1.0116842
-11.978005 -22.11352 -1.0128933
1.9755452 -21.195141 -0.9871226
1.9071556 -21.181345 -0.98619437
1.840603 -21.187231 -0.98619437
1.7731981 -21.182955 -0.98573023
1.7095354 -21.178165 -0.98526615
1.6429938 -21.183432 -0.98526615
1.5779201 -21.208412 -0.98619437
0.51451916 -21.28079 -0.9871226
0.4474501 -21.272314 -0.98665845
0.38079852 -21.283604 -0.9871226
0.31378403 -21.274706 -0.98665845
0.24706283 -21.285576 -0.9871226
0.18019101 -21.286247 -0.9871226
0.11347952 -21.316673 -0.98851478
0.046487991 -21.306936 -0.9880507
-0.02045867 -21.316965 -0.98851478
-0.087427795 -21.316797 -0.98851478
-0.15067485 -21.316442 -0.98851478
-0.21774282 -21.325853 -0.98897886
-0.2847389 -21.325064 -0.98897886
-0.35189602 -21.334053 -0.989443
-0.41930771 -21.352818 -0.99037117
-0.48638749 -21.351395 -0.99037117
-0.55320448 -21.339775 -0.98990709
-0.62024266 -21.337931 -0.98990709
-0.6879133 -21.355846 -0.99083531
-0.75500131 -21.35358 -0.99083531
-0.8220818 -21.351103 -0.99083531
-0.88998383 -21.368374 -0.99176341
-0.95338321 -21.365639 -0.99176341
-1.0219281 -21.392473 -0.99315572
-1.0881151 -21.369204 -0.99222749
-1.1568557 -21.395605 -0.9936198
-1.2240663 -21.391865 -0.9936198
-1.292467 -21.407856 -0.99454802
-1.3597155 -21.40369 -0.99454802
-1.4269505 -21.399313 -0.99454802
-1.6323565 -21.434715 -0.99686843
-1.6988986 -21.419523 -0.99640435
-1.7624433 -21.414389 -0.99640435
-1.7965688 -21.02058 -0.9783048
-1.861717 -21.004881 -0.97784072
-1.9322764 -21.008539 -0.9783048
-1.9946007 -21.002714 -0.9783048
-2.0615475 -21.006287 -0.97876889
-2.1325605 -21.049397 -0.98108935
-2.1997159 -21.052528 -0.98155344
-2.2637067 -21.02565 -0.98062521
-2.3297496 -21.018435 -0.98062521
-2.3991618 -21.040787 -0.98201752
-2.4664137 -21.043068 -0.98248166
-2.5360897 -21.064968 -0.98387384
-2.6475539 -21.423712 -1.0010452
-2.7198827 -21.485134 -1.0042939
-2.7899368 -21.496296 -1.0052221
-2.8600874 -21.507231 -1.0061504
-2.9289873 -21.508036 -1.0066143
-2.9992986 -21.518515 -1.0075425
-3.0697045 -21.528765 -1.0084708
-3.1373241 -21.519014 -1.0084708
-3.2078552 -21.528814 -1.0093989
-3.2769766 -21.528505 -1.009863
-3.3476608 -21.537846 -1.0107912
-3.4153075 -21.527222 -1.0107912
-3.4877067 -21.545969 -1.0121834
-3.7719324 -21.579163 -1.0158962
-3.8359418 -21.567877 -1.0158962
-3.8823297 -21.437767 -1.0103271
-3.8808751 -21.052156 -0.99269164
-3.9433112 -21.020224 -0.99176341
-4.0355339 -21.145105 -0.99826074
-4.1057482 -21.151934 -0.99918884
-4.1605787 -21.08013 -0.99640435
-4.2287445 -21.07675 -0.99686843
-4.2989283 -21.082937 -0.99779665
-4.3833723 -21.157362 -1.0019735
-4.4251413 -21.026184 -0.99640435
-4.5099592 -21.100096 -1.0005811
-4.5762248 -21.085823 -1.0005811
-4.8901157 -21.240818 -1.0107912
-5.0030379 -21.440235 -1.0210012
-5.1209636 -21.638271 -1.0312113
-5.202898 -21.680357 -1.0339957
-5.2686224 -21.654198 -1.0335317
-5.2648883 -21.346577 -1.019609
-5.3621268 -21.167822 -1.0126475
-5.5050731 -21.172384 -1.0145038
-5.5754924 -21.184938 -1.0158962
-5.6497355 -21.196276 -1.0172884
-5.7188997 -21.188066 -1.0177526
-5.8652287 -21.199854 -1.0200731
-5.934494 -21.190943 -1.0205371
-6.0010381 -21.172195 -1.0205371
-6.0785365 -21.191645 -1.0223935
-6.3456621 -21.623796 -1.0451339
-6.3121157 -21.248327 -1.0279626
-6.4506845 -21.467566 -1.0395648
-6.4766216 -21.324072 -1.0335317
-6.5230556 -21.236776 -1.030283
-6.6023364 -21.243647 -1.0316753
-6.6713223 -21.243025 -1.0326035
-6.7561588 -21.279087 -1.035388
-6.8321319 -21.286293 -1.0367804
-6.892807 -21.24572 -1.0358522
-6.9719648 -21.261929 -1.0377084
-7.0544348 -21.287334 -1.0400289
-7.1212759 -21.265066 -1.0400289
-7.207253 -21.299364 -1.0428135
-7.283824 -21.304974 -1.0442058
-7.5300422 -21.801304 -1.0697308
-7.6182361 -21.834131 -1.0725154
-7.6967516 -21.838354 -1.0739076
-7.768208 -21.834246 -1.0748358
-7.8468947 -21.837934 -1.076228
-7.9324961 -21.860128 -1.0785486
-8.0114403 -21.863237 -1.0799408
-8.0904837 -21.866068 -1.081333
-8.1766138 -21.887333 -1.0836536
-8.4943504 -21.894617 -1.0892227
-8.5812998 -21.914331 -1.0915431
-8.6611166 -21.915134 -1.0929353
-8.7843733 -21.445608 -1.0748358
-8.8440742 -21.399441 -1.0739076
-8.9381638 -21.436092 -1.0771563
-9.024827 -21.453947 -1.0794767
-9.131196 -21.517445 -1.0841177
-9.2066107 -21.507021 -1.0850458
-9.2899685 -21.514675 -1.0869023
-9.3814411 -21.540337 -1.0896868
-9.4289827 -21.465027 -1.0873663
-9.5732336 -21.608833 -1.096184
-9.7347775 -21.788427 -1.1068581
-9.8647213 -21.894354 -1.1138195
-9.9912949 -21.990582 -1.1203167
-10.072811 -21.98633 -1.1217091
-10.166964 -22.008989 -1.1244936
2.042243 -21.152464 -1.1116157
1.9776125 -21.138544 -1.110569
1.9120951 -21.154598 -1.1110923
1.8447596 -21.150551 -1.110569
1.7791398 -21.166195 -1.1110923
1.7081368 -21.162024 -1.110569
1.6416459 -21.167286 -1.110569
1.5773511 -21.152145 -1.1095222
0.58426541 -21.252779 -1.1121391
0.51749492 -21.254511 -1.1121391
0.45029759 -21.236063 -1.1110923
0.38393933 -21.257341 -1.1121391
0.32071671 -21.248402 -1.1116157
0.25048536 -21.269321 -1.1126624
0.18374999 -21.279989 -1.1131858
0.11689603 -21.28046 -1.1131858
0.050018247 -21.270737 -1.1126624
-0.016805993 -21.270788 -1.1126624
-0.08375033 -21.300589 -1.1142324
-0.15052478 -21.280251 -1.1131858
-0.21376419 -21.289694 -1.1137091
-0.28077915 -21.298903 -1.1142324
-0.34785408 -21.307901 -1.1147559
-0.4147931 -21.306702 -1.1147559
-0.48172805 -21.305294 -1.1147559
-0.54917407 -21.323643 -1.1158025
-0.61616158 -21.321812 -1.1158025
-0.68410212 -21.349714 -1.1173726
-0.75081885 -21.337481 -1.1168493
-0.81861544 -21.354973 -1.117896
-0.88528544 -21.342319 -1.1173726
-0.9486075 -21.339598 -1.1173726
-1.0175457 -21.376411 -1.1194661
-1.0841897 -21.363136 -1.1189427
-1.1555645 -21.369396 -1.1194661
-1.2189629 -21.365873 -1.1194661
-1.2866808 -21.371906 -1.1199894
-1.3544486 -21.377726 -1.1205128
-1.6252476 -21.388889 -1.1220828
-1.6932236 -21.393633 -1.1226062
-1.7571454 -21.348398 -1.1205128
-1.7918566 -20.964674 -1.100625
-1.8630054 -21.018625 -1.1037654
-1.9308556 -21.032557 -1.104812
-1.9969218 -21.026386 -1.104812
-2.0612478 -21.040247 -1.1058587
-2.1243205 -21.003862 -1.1042887
-2.1902957 -20.997084 -1.1042887
-2.2551811 -20.980171 -1.1037654
-2.3265774 -21.02261 -1.1063821
-2.3926105 -21.015196 -1.1063821
-2.4597814 -21.017494 -1.1069055
-2.5317616 -21.059237 -1.1095222
-2.6468666 -21.44762 -1.1304567
-2.7192535 -21.478827 -1.1325501
-2.7880039 -21.480082 -1.1330734
-2.8594239 -21.500916 -1.1346436
-2.9232049 -21.492336 -1.1346436
-2.9934659 -21.502827 -1.1356902
-3.063822 -21.51309 -1.136737
-3.1313922 -21.503359 -1.136737
-3.2018735 -21.51317 -1.1377836
-3.2724471 -21.522751 -1.1388304
-3.3400469 -21.512363 -1.1388304
-3.4107411 -21.52149 -1.1398771
-3.4783359 -21.510668 -1.1398771
-3.6977894 -21.575357 -1.1451107
-3.7617879 -21.564291 -1.1451107
-3.8330112 -21.572031 -1.1461574
-3.8758609 -21.422312 -1.1388304
-3.8726139 -21.006693 -1.1173726
-3.940448 -21.024555 -1.1189427
-4.0120931 -21.041502 -1.1205128
-4.0800791 -21.038597 -1.1210362
-4.1461539 -21.025675 -1.1210362
-4.2161117 -21.032127 -1.1220828
-4.2961259 -21.087276 -1.1257465
-4.3664021 -21.093231 -1.126793
-4.422368 -21.030548 -1.1241763
-4.4967618 -21.055616 -1.1262698
-4.5650048 -21.051142 -1.126793
-4.7749863 -21.076191 -1.1304567
-4.9575477 -21.567165 -1.1576713
-5.0456953 -21.639011 -1.1623815
-5.1182494 -21.64249 -1.1634283
-5.1908751 -21.645725 -1.1644751
-5.2635713 -21.648716 -1.1655216
-5.3100424 -21.544811 -1.1608115
-5.2760205 -21.121111 -1.1388304
-5.3521538 -21.143154 -1.1409239
-5.4284778 -21.164927 -1.1430173
-5.5150399 -21.22509 -1.1472042
-5.6084809 -21.324524 -1.1534845
-5.7191563 -21.470842 -1.1623815
-5.8163571 -21.54817 -1.1676152
-5.8223672 -21.318886 -1.1561012
-5.8626938 -21.204241 -1.1508677
-5.9185104 -21.147249 -1.1487741
-6.1319284 -21.647387 -1.1770357
-6.224679 -21.714411 -1.1817459
-6.2984319 -21.71393 -1.1827927
-6.3497396 -21.636543 -1.1796525
-6.3494506 -21.386734 -1.1670917
-6.482687 -21.586657 -1.179129
-6.591114 -21.699955 -1.1864561
-6.5741959 -21.402311 -1.1712787
-6.6117702 -21.286184 -1.1660451
2.0572076 -21.154367 -1.2269373
1.9907389 -21.160727 -1.2269373
1.9205556 -21.167212 -1.2269373
1.8551332 -21.142981 -1.2252052
1.790379 -21.1686 -1.22636
1.7222519 -21.154219 -1.2252052
1.6573381 -21.179432 -1.22636
1.5900477 -21.174578 -1.2257825
0.52808958 -21.237614 -1.22636
0.46158135 -21.249149 -1.2269373
0.3948229 -21.250494 -1.2269373
0.33146095 -21.231607 -1.2257825
0.26512414 -21.262493 -1.2275147
0.19470452 -21.273237 -1.2280921
0.1277567 -21.253778 -1.2269373
0.064751431 -21.274031 -1.2280921
-0.0020901922 -21.294094 -1.2292469
-0.068917863 -21.274017 -1.2280921
-0.13588424 -21.293661 -1.2292469
-0.2063974 -21.28311 -1.2286694
-0.27352062 -21.302322 -1.2298242
-0.33672389 -21.301416 -1.2298242
-0.40383425 -21.310236 -1.2304016
-0.47078034 -21.308861 -1.2304016
-0.53797615 -21.317257 -1.230979
-0.60494363 -21.315462 -1.230979
-0.67190516 -21.313457 -1.230979
-0.74025369 -21.351149 -1.2332884
-0.80656719 -21.328768 -1.2321337
-0.87356949 -21.326128 -1.2321337
-0.93772209 -21.343388 -1.2332884
-1.0047697 -21.340336 -1.2332884
-1.0733174 -21.366987 -1.2350206
-1.1393691 -21.343571 -1.2338659
-1.2081144 -21.369789 -1.2355981
-1.2758409 -21.375854 -1.2361754
-1.3429888 -21.37174 -1.2361754
-1.4094635 -21.357454 -1.2355981
-1.6099696 -21.383322 -1.2379075
-1.6816564 -21.387817 -1.2384849
-1.7512888 -21.412279 -1.2402171
-1.7914277 -21.08836 -1.2217408
-1.9806861 -20.971149 -1.2159671
-2.0475287 -20.97476 -1.2165444
-2.1107571 -20.978525 -1.2171218
-2.177686 -20.981722 -1.2176992
-2.2457197 -20.994627 -1.218854
-2.3127608 -20.997393 -1.2194313
-2.3809681 -21.009863 -1.2205861
-2.4492764 -21.02211 -1.2217408
-2.5164936 -21.024225 -1.2223183
-2.6374357 -21.462095 -1.2483004
-2.7060993 -21.46361 -1.2488778
-2.7747982 -21.464903 -1.2494552
-2.846159 -21.485769 -1.2511874
-2.909898 -21.47723 -1.2511874
-2.9787302 -21.477871 -1.2517648
-3.0489972 -21.488174 -1.2529194
-3.8804288 -21.110126 -1.2390623
-4.0755334 -21.07333 -1.2390623
2.01074 -21.251421 -0.37191078
1.9412274 -21.227762 -0.37138718
1.8754107 -21.243717 -0.37156171
1.8123719 -21.249187 -0.37156171
1.7447855 -21.244812 -0.37138718
1.6796138 -21.270123 -0.37173626
1.6112667 -21.255354 -0.37138718
1.5437561 -21.250341 -0.37121269
1.4776843 -21.265059 -0.37138718
1.4115351 -21.279573 -0.37156171
1.3434105 -21.263947 -0.37121269
1.1424065 -21.26568 -0.37103817
1.0781336 -21.31909 -0.37191078
1.0143937 -21.312208 -0.37173626
0.94698787 -21.305302 -0.37156171
0.88046581 -21.318161 -0.37173626
0.81348848 -21.320822 -0.37173626
0.74650311 -21.323273 -0.37173626
0.54499185 -21.30937 -0.37138718
0.47849748 -21.330969 -0.37173626
0.41187277 -21.352362 -0.3720853
0.34479031 -21.35355 -0.3720853
0.27757183 -21.34453 -0.37191078
0.21444395 -21.365255 -0.37225983
0.14725326 -21.355825 -0.3720853
0.07643307 -21.356197 -0.3720853
0.0093471967 -21.366329 -0.37225983
-0.054069933 -21.376263 -0.37243435
-0.12127928 -21.385986 -0.37260887
-0.18829371 -21.365501 -0.37225983
-0.25541449 -21.364805 -0.37225983
-0.32282943 -21.383892 -0.37260887
-0.39036673 -21.402765 -0.37295792
-0.45760357 -21.401434 -0.37295792
-0.52459335 -21.389894 -0.37278339
-0.59206307 -21.398136 -0.37295792
-0.65958971 -21.406164 -0.37313244
-0.72376943 -21.424099 -0.37348148
-0.79070526 -21.411728 -0.37330696
-0.85836601 -21.419128 -0.37348148
-0.92522281 -21.406336 -0.37330696
-0.99338937 -21.4233 -0.373656
-1.0616716 -21.440046 -0.37400508
-1.1300687 -21.456573 -0.37435409
-1.1963618 -21.432953 -0.37400508
-1.2654474 -21.459032 -0.37452862
-1.3353262 -21.494869 -0.37522674
-1.402199 -21.480591 -0.37505221
-1.4703554 -21.486055 -0.37522674
-1.6743368 -21.49118 -0.37557578
-1.7402344 -21.465881 -0.37522674
-1.8064212 -21.490513 -0.3757503
-1.8739266 -21.484732 -0.3757503
-1.9423112 -21.488697 -0.37592483
-2.0125968 -21.512356 -0.37644839
-2.08113 -21.515879 -0.37662292
-2.1417747 -21.43959 -0.37540126
-2.2070735 -21.412865 -0.37505221
-2.2869785 -21.525137 -0.37714648
-2.3556755 -21.527786 -0.377321
-2.4244118 -21.530214 -0.37749553
-2.4954786 -21.55229 -0.37801912
-2.561996 -21.534416 -0.3778446
-2.6320555 -21.54611 -0.37819365
-2.7022135 -21.557577 -0.37854266
-2.7724698 -21.568815 -0.37889174
-2.8415198 -21.569912 -0.37906626
-2.9079351 -21.55097 -0.37889174
-2.9759562 -21.571962 -0.3794153
-3.0465019 -21.58231 -0.37976438
-3.1185677 -21.60232 -0.38028792
-3.1864181 -21.592415 -0.38028792
-3.2572134 -21.602074 -0.38063696
-3.3265817 -21.601616 -0.38081151
-3.3975294 -21.610815 -0.38116056
-3.465405 -21.600035 -0.38116056
-3.5364709 -21.608774 -0.38150957
-3.8178406 -21.642069 -0.38290578
-3.8540349 -21.452824 -0.37976438
-3.8477623 -21.037344 -0.37260887
-3.9083524 -20.995661 -0.3720853
-3.9891577 -21.061872 -0.37348148
-4.0628614 -21.088509 -0.37417957
-4.1252537 -21.056017 -0.37383056
-4.1972342 -21.072372 -0.37435409
-4.2673774 -21.078682 -0.37470317
-4.339952 -21.114901 -0.37557578
-4.3940172 -21.042433 -0.37452862
-4.4762154 -21.086435 -0.37557578
-4.5429649 -21.092609 -0.37592483
-4.6092067 -21.078232 -0.37592483
-4.892221 -21.40427 -0.38255674
-5.0361433 -21.719976 -0.38849056
-5.1066399 -21.713779 -0.38866508
-5.1840992 -21.736536 -0.38936317
-5.2547088 -21.72986 -0.38953769
-5.3348398 -21.761803 -0.3904103
-5.4079981 -21.764343 -0.39075938
-5.478785 -21.756943 -0.3909339
-5.5507183 -21.769659 -0.39145747
-5.6240788 -21.771475 -0.39180651
-5.6975055 -21.773046 -0.39215556
-5.770998 -21.774372 -0.3925046
-5.8497334 -21.794762 -0.39320269
-5.9207945 -21.785927 -0.39337721
-5.9998088 -21.805782 -0.39407533
-6.0334387 -21.661602 -0.39180651
-6.1421208 -21.786903 -0.39442438
-6.2269812 -21.825191 -0.39547151
-6.2899709 -21.786308 -0.39512247
-6.3499799 -21.737646 -0.3945989
-6.4257698 -21.757069 -0.39529699
-6.4883704 -21.717611 -0.39494795
-6.5970244 -21.831123 -0.39739126
-6.6801763 -21.858105 -0.3982639
-6.7193127 -21.741476 -0.39651865
-6.8173795 -21.815702 -0.3982639
-6.912971 -21.87999 -0.39983463
-6.9786348 -21.848639 -0.39966011
-7.0687284 -21.893215 -0.40088177
-7.140573 -21.880405 -0.40105629
-7.2124066 -21.867361 -0.40123081
-7.2937064 -21.88254 -0.4019289
-7.3687944 -21.878469 -0.40227795
-7.4535861 -21.902544 -0.40315059
-7.5321035 -21.907387 -0.40367416
-7.6140041 -21.9214 -0.40437225
-7.6894498 -21.916241 -0.40472129
-7.7682767 -21.920252 -0.40524486
-7.8433771 -21.925352 -0.40576845
-7.9257989 -21.938221 -0.40646651
-7.9981055 -21.922606 -0.40664107
-8.0807543 -21.934904 -0.40733916
-8.1600752 -21.937523 -0.40786272
-8.4819136 -21.95451 -0.41013154
-8.5726261 -21.983652 -0.41117868
-8.652626 -21.984526 -0.41170228
-8.7327156 -21.985113 -0.41222581
-8.9621878 -21.957382 -0.41327298
-8.9816551 -21.808918 -0.41100416
-9.0156174 -21.697489 -0.40943342
-9.1339607 -21.788944 -0.41170228
-9.2529669 -21.879868 -0.41397107
-9.3334198 -21.878284 -0.41449466
-9.4180365 -21.896423 -0.41536725
-9.4629164 -21.811687 -0.41432011
-9.4152164 -21.516186 -0.4092589
-9.6724033 -21.916468 -0.41746157
-9.794034 -22.004734 -0.41973037
-9.9040375 -22.065083 -0.42147562
-9.9279757 -21.933653 -0.41955584
-10.079823 -22.084291 -0.42304632
-10.170043 -22.097933 -0.42391893
-10.520317 -22.132776 -0.42706037
-10.602292 -22.115803 -0.42740944
-10.689113 -22.118399 -0.4281075
-10.776054 -22.120667 -0.42880562
-10.86752 -22.131582 -0.42967823
-10.950864 -22.135094 -0.43037635
-11.042647 -22.145323 -0.43124893
-11.139091 -22.164131 -0.43229607
-11.222215 -22.155788 -0.43281966
-11.30994 -22.15605 -0.43351778
-11.416064 -22.191545 -0.43491396
-11.490324 -22.16445 -0.43508849
-11.583037 -22.172558 -0.4359611
-11.68988 -22.206846 -0.43735731
-11.778321 -22.205349 -0.4380554
-11.866866 -22.203512 -0.43875349
-11.964993 -22.218946 -0.43980062
1.9595026 -21.264088 -0.49484915
1.890029 -21.240265 -0.49415281
1.8207272 -21.216217 -0.49345651
1.7557142 -21.241758 -0.49392068
1.6918842 -21.23691 -0.49368861
1.6251581 -21.242121 -0.49368861
1.559148 -21.25709 -0.49392068
1.4923592 -21.261883 -0.49392068
1.4248862 -21.256493 -0.49368861
1.3581028 -21.260864 -0.49368861
1.2864482 -21.185194 -0.49183175
1.2221887 -21.229053 -0.49276018
1.1576662 -21.27272 -0.49368861
1.0918556 -21.296219 -0.49415281
1.0244648 -21.289558 -0.49392068
0.96264619 -21.322466 -0.49461702
0.89397627 -21.285431 -0.49368861
0.82787967 -21.308113 -0.49415281
0.75756985 -21.320732 -0.49438491
0.56137246 -21.366804 -0.49531335
0.49308366 -21.318489 -0.49415281
0.42670918 -21.349918 -0.49484915
0.35929582 -21.331161 -0.49438491
0.29241806 -21.342182 -0.49461702
0.22536817 -21.342995 -0.49461702
0.15839109 -21.353596 -0.49484915
0.091436878 -21.38398 -0.49554548
0.024220029 -21.354168 -0.49484915
-0.042866193 -21.354139 -0.49484915
-0.1100532 -21.373894 -0.49531335
-0.17346956 -21.373474 -0.49531335
-0.24061546 -21.372824 -0.49531335
-0.30790204 -21.381958 -0.49554548
-0.37507394 -21.380886 -0.49554548
-0.44244796 -21.389595 -0.49577755
-0.5096432 -21.3881 -0.49577755
-0.57710207 -21.396387 -0.49600965
-0.64401788 -21.384476 -0.49577755
-0.71252185 -21.422314 -0.49670598
-0.78018141 -21.429962 -0.49693808
-0.8467133 -21.407425 -0.49647388
-0.91481376 -21.424637 -0.49693808
-0.97837716 -21.421827 -0.49693808
-1.0466442 -21.43862 -0.49740231
-1.1145084 -21.445208 -0.49763438
-1.1824244 -21.451584 -0.49786648
-1.2492299 -21.437782 -0.49763438
-1.3171847 -21.443731 -0.49786648
-1.3851891 -21.449463 -0.49809861
-1.4525677 -21.445005 -0.49809861
-1.6576899 -21.470236 -0.49902704
-1.7251296 -21.464922 -0.49902704
-1.7904711 -21.479635 -0.49949127
-1.8588032 -21.483862 -0.49972335
-1.930928 -21.487537 -0.49995545
-1.9984236 -21.481365 -0.49995545
-2.0640628 -21.495245 -0.50041968
-2.1325679 -21.498604 -0.50065178
-2.1868703 -21.362507 -0.49763438
-2.2696991 -21.504665 -0.50111598
-2.3415654 -21.537182 -0.50204438
-2.4069932 -21.50985 -0.50158018
-2.4779828 -21.531977 -0.50227648
-2.547962 -21.543943 -0.50274074
-2.6180408 -21.555681 -0.50320494
-2.6869826 -21.557268 -0.50343704
-2.7509317 -21.549202 -0.50343704
-2.8199131 -21.550365 -0.50366914
-2.8902566 -21.561218 -0.50413334
-2.9593375 -21.561937 -0.50436544
-3.0284514 -21.562435 -0.50459754
-3.0990183 -21.572605 -0.50506181
-3.1696787 -21.582544 -0.50552595
-3.2374666 -21.572481 -0.50552595
-3.3097646 -21.59185 -0.50622231
-3.3775811 -21.581345 -0.50622231
-3.4485161 -21.590374 -0.50668651
-3.5227551 -21.6189 -0.50761491
-3.8027959 -21.62216 -0.50877547
-3.8616524 -21.581257 -0.50807917
-3.8613758 -21.195269 -0.49925914
-4.0402427 -21.049932 -0.49670598
-4.1044388 -21.027325 -0.49647388
-4.1782589 -21.053551 -0.49740231
-4.250308 -21.069721 -0.49809861
-4.3204932 -21.075851 -0.49856281
-4.3927965 -21.091537 -0.49925914
-4.6041603 -21.107807 -0.50065178
-4.8162165 -21.12196 -0.50204438
-5.0934324 -21.724827 -0.51713127
-5.1685934 -21.737898 -0.51782757
-5.2368593 -21.721554 -0.51782757
-5.29321 -21.656437 -0.51666707
-5.2506661 -21.19331 -0.50599021
-5.45017 -21.142883 -0.50599021
-5.5241408 -21.154676 -0.50668651
-5.5919933 -21.157524 -0.50715077
-5.6610179 -21.149508 -0.50738281
-5.7352762 -21.160568 -0.50807917
-5.8123026 -21.181011 -0.50900757
-5.8841658 -21.181911 -0.50947177
-5.9533868 -21.172945 -0.50970387
-6.0253453 -21.17337 -0.51016808
-6.1111937 -21.221586 -0.51179284
-6.3316054 -21.730196 -0.52455866
-6.3744078 -21.623892 -0.5224697
-6.4680147 -21.689985 -0.52455866
-6.4495378 -21.382408 -0.51759547
-6.6388683 -21.282497 -0.51666707
-6.7019844 -21.262707 -0.51666707
-6.7808881 -21.279648 -0.51759547
-6.863029 -21.305822 -0.51875603
-6.917552 -21.24613 -0.51782757
-6.9967613 -21.26228 -0.51875603
-7.0761399 -21.278141 -0.51968443
-7.152504 -21.284237 -0.52038074
-7.2257614 -21.280594 -0.52084494
-7.3087974 -21.305071 -0.5220055
-7.5884347 -21.896019 -0.53709233
-7.6637912 -21.890944 -0.53755659
-7.7425218 -21.895035 -0.53825283
-7.8141713 -21.890799 -0.53871709
-7.8998542 -21.913168 -0.53987765
-7.9789147 -21.916424 -0.54057389
-8.0546255 -21.910017 -0.54103816
-8.137331 -21.922096 -0.54196662
-8.2131767 -21.915146 -0.54243076
-8.4553118 -21.93005 -0.54475182
-8.5350409 -21.93133 -0.54544818
-8.618515 -21.941628 -0.54637659
-8.6984549 -21.942327 -0.54707289
-8.7911615 -21.398218 -0.53616393
-8.8774796 -21.416672 -0.53732449
-8.9678564 -21.444017 -0.53871709
-9.0351801 -21.415737 -0.53871709
-9.1102438 -21.405645 -0.53918129
-9.2050486 -21.441227 -0.54080606
-9.2763348 -21.421377 -0.54103816
-9.3595877 -21.42878 -0.54196662
-9.4470091 -21.445015 -0.54312712
-9.5305672 -21.451775 -0.54405552
-9.6469564 -21.531214 -0.54684079
-9.9203329 -21.956345 -0.55844605
-10.018271 -21.988754 -0.56007081
-10.045573 -21.866325 -0.55774975
-10.319305 -21.572367 -0.55426818
-10.408735 -21.584869 -0.55542868
-10.493975 -21.588028 -0.55635709
-10.579337 -21.590866 -0.55728555
-10.673673 -21.611307 -0.55867815
-10.817241 -21.72982 -0.56262398
-11.082689 -22.088913 -0.57283664
-11.170072 -22.089674 -0.57376504
-11.253029 -22.081196 -0.57446134
-11.345177 -22.0902 -0.5756219
-11.432898 -22.089968 -0.5765503
-11.534595 -22.115992 -0.57817507
-11.63192 -22.132744 -0.57956767
-11.715428 -22.122599 -0.58026403
-11.8084 -22.129787 -0.58142453
-11.892065 -22.118998 -0.58212084
1.9814594 -21.218895 -0.60902816
1.9138914 -21.215061 -0.60874206
1.8489647 -21.240885 -0.60931438
1.7797214 -21.216707 -0.60845584
1.7138618 -21.232157 -0.60874206
1.6426727 -21.227757 -0.60845584
1.580423 -21.242506 -0.60874206
1.5136799 -21.247366 -0.60874206
1.4462438 -21.242044 -0.60845584
1.3807962 -21.26643 -0.60902816
1.3139789 -21.270664 -0.60902816
1.238387 -21.125006 -0.60473526
1.178648 -21.24856 -0.60816962
1.1129307 -21.272121 -0.60874206
1.0460968 -21.275515 -0.60874206
0.98342758 -21.288507 -0.60902816
0.91611391 -21.281507 -0.60874206
0.84925157 -21.284281 -0.60874206
0.78311336 -21.30682 -0.60931438
0.71583724 -21.299185 -0.60902816
0.44855255 -21.326487 -0.6096006
0.38190711 -21.347778 -0.61017299
0.31812119 -21.318832 -0.60931438
0.25126141 -21.329723 -0.6096006
0.18053006 -21.330439 -0.6096006
0.11356995 -21.340897 -0.60988677
0.046504043 -21.331152 -0.6096006
-0.020530913 -21.351185 -0.61017299
-0.087649412 -21.361012 -0.61045921
-0.15482986 -21.370626 -0.61074543
-0.21823631 -21.370073 -0.61074543
-0.2853713 -21.369282 -0.61074543
-0.35266921 -21.378275 -0.61103159
-0.41982931 -21.377062 -0.61103159
-0.48698527 -21.375637 -0.61103159
-0.55439627 -21.383991 -0.61131775
-0.62186468 -21.392138 -0.61160398
-0.68938965 -21.400068 -0.61189014
-0.75661659 -21.397797 -0.61189014
-0.82345051 -21.385326 -0.61160398
