# .PCD v0.7 - Point Cloud Data file format
VERSION 0.7
FIELDS x y z
SIZE 4 4 4
TYPE F F F
COUNT 1 1 1
WIDTH 110
HEIGHT 1
VIEWPOINT 0 0 0 1 0 0 0
POINTS 110
DATA ascii
-2.982548 18.30792 0.10660936
-2.8658078 18.336679 0.10666696
-2.8172858 18.404896 0.10701253
-2.9157104 18.400347 0.003244567
-2.8624873 18.43906 0.0032498029
-2.9362981 18.54875 -0.088306248
-2.879545 18.567766 -0.088353373
-2.962059 18.604286 -0.19358729
-2.8957379 18.584366 -0.19327839
-2.8403528 18.61314 -0.19348432
-2.7680204 18.020412 0.53357536
-2.706928 17.999369 0.53269589
-2.656204 18.047337 0.53386855
-2.8427923 18.042429 0.42313278
-2.7906768 18.080912 0.42382914
-2.9239893 18.122719 0.32292503
-2.8451941 17.993553 0.32045728
-2.9342017 18.122303 0.21742103
-2.8851223 18.160557 0.21777707
-2.8279493 18.189785 0.21801442
-2.8338954 18.599663 -0.75735235
-2.7769284 18.618357 -0.75775546
-2.7213175 18.646761 -0.75856155
-2.9214535 18.540972 -0.87017149
-2.8631933 18.550058 -0.87017149
-2.8078926 18.578716 -0.87109971
-2.9277358 18.473763 -0.97815907
-2.8712177 18.492735 -0.97868234
-2.81761 18.531282 -0.98025244
-3.0125105 18.464277 -1.0797048
-2.8995278 18.502569 -1.0808595
-2.8398669 18.501719 -1.0802822
-2.8998878 18.30349 -1.182875
-2.8761137 18.529453 -1.196919
-2.8888795 18.654346 -0.32880333
-2.824255 18.623789 -0.32810524
-3.0205629 18.517857 -1.3322065
-2.9576471 18.497704 -1.3300772
-2.9072473 18.556175 -1.3336259
-2.855144 18.627314 -0.43659061
-2.7891901 18.58676 -0.43543011
-2.745312 18.694342 -0.43775114
-2.9515851 18.581978 -1.4380673
-2.8901312 18.571453 -1.4365398
-2.8306406 18.638498 -0.53862363
-2.7544482 18.52865 -0.53518921
-5.4436631 16.937435 -1.4469336
-5.4145594 17.030449 -1.453433
-5.4028525 17.180496 -1.464807
-5.3577213 17.225941 -1.4672444
-5.3065076 17.252214 -1.4680568
-5.2435875 17.240191 -1.4656194
-5.2293792 17.400677 -1.477806
-5.0896115 17.130367 -1.453433
-5.0946932 17.347115 -1.4704942
-5.0568218 17.420471 -1.4753686
-5.015799 17.484177 -1.4794308
-4.9771371 17.557388 -1.4843054
-4.8682494 17.38097 -1.4680568
-4.8109641 17.386572 -1.4672444
-4.7694459 17.449673 -1.4713064
-4.7405477 17.560804 -1.4794308
-4.6489706 17.451216 -1.4688692
-4.6371789 17.629612 -1.4826806
-4.5617509 17.566912 -1.4761811
-4.5065422 17.581156 -1.4761811
-4.4464016 17.575899 -1.4745562
-4.4104557 17.667149 -1.4810556
-4.3715987 17.748665 -1.4867426
-4.2946668 17.675138 -1.4794308
-4.2530308 17.746704 -1.4843054
-4.2109962 17.81818 -1.48918
-4.161777 17.860443 -1.4916171
-4.11902 17.931717 -1.4964918
-4.0868359 18.051506 -1.5054284
-4.0192704 18.015615 -1.5013664
-3.9776132 18.096298 -1.5070533
-3.9291701 18.147673 -1.510303
-3.876282 18.179424 -1.5119278
-3.8139317 18.182425 -1.5111156
-3.752768 18.174793 -1.5094906
-3.6778164 18.098581 -1.5021788
-3.6404552 18.207787 -1.510303
-3.5678639 18.140894 -1.5038036
-3.5278661 18.240088 -1.5111156
-3.468689 18.241289 -1.510303
-3.4223373 18.310881 -1.5151776
-3.3683927 18.34115 -1.5168025
-3.3107483 18.351643 -1.5168025
-3.2565529 18.381582 -1.5184274
-3.1751387 18.274435 -1.5086782
-3.1227319 18.313797 -1.5111156
-3.0750339 18.382502 -1.51599
-3.0092075 18.342892 -1.5119278
-2.9784982 18.49935 -1.5241144
-2.9358742 18.607071 -1.5322385
-2.8156462 18.625643 -1.5322385
-2.7483847 18.575235 -1.527364
-2.7099679 18.721882 -1.5387379
-2.6422992 18.69129 -1.5354882
-2.6026261 18.837727 -1.5468622
-2.5567381 18.944588 -1.5549865
-2.4998002 18.972292 -1.5566114
-2.4237008 18.851534 -1.5460498
-2.3545706 18.779936 -1.5395504
-2.2943566 18.777346 -1.5387379
-2.2741203 19.11108 -1.5655482
-2.8328204 18.563272 -0.65436554
-2.7744906 18.572079 -0.65436554
-2.7190092 18.600485 -0.65506357
