# .PCD v0.7 - Point Cloud Data file format
VERSION 0.7
FIELDS x y z
SIZE 4 4 4
TYPE F F F
COUNT 1 1 1
WIDTH 853
HEIGHT 1
VIEWPOINT 0 0 0 1 0 0 0
POINTS 853
DATA ascii
-0.78710616 8.8645582 0.051029656
-0.75427967 8.8272676 0.050799273
-0.72240907 8.7797661 0.050511293
-0.6924392 8.7520876 0.05033851
-0.66188663 8.7143373 0.050108127
-0.63304287 8.6964273 0.049992934
-0.60571569 8.6983728 0.049992934
-0.57704771 8.6802788 0.049877744
-0.54849941 8.6620893 0.049762551
-0.52128512 8.6637697 0.049762551
-0.49348545 8.6553822 0.049704958
-0.46629247 8.6568899 0.049704958
-0.43960774 8.6682978 0.049762551
-0.41285601 8.6796246 0.049820147
-0.38603282 8.6908684 0.049877744
-0.35956636 8.7120199 0.049992934
-0.33219612 8.7131071 0.049992934
-0.30365443 8.7241545 0.050050531
-0.27689204 8.7450552 0.050165724
-0.24941844 8.745882 0.050165724
-0.22193773 8.7466221 0.050165724
-0.19491667 8.7672701 0.05028091
-0.1664283 8.797863 0.050453704
-0.13895339 8.8083401 0.050511293
-0.11167959 8.8387308 0.050684083
-0.084413946 8.8890333 0.050972059
-0.056907855 8.9492531 0.051317632
-0.028909026 8.9793863 0.051490419
-0.00074239855 9.0394325 0.051835995
-0.76691997 8.9699059 -1.0117078
-0.73138201 8.8632011 -0.99936992
-0.69731867 8.806139 -0.99264008
-0.66666394 8.768651 -0.98815358
-0.63768303 8.7508802 -0.98591036
-0.60813582 8.7231007 -0.9825455
-0.57941818 8.7051373 -0.98030221
-0.54930639 8.6871767 -0.97805899
-0.52142394 8.6789398 -0.97693735
-0.49304047 8.6606922 -0.97469407
-0.46583083 8.6621981 -0.97469407
-0.43861198 8.663619 -0.97469407
-0.41092879 8.6550274 -0.97357243
-0.3837373 8.6562757 -0.97357243
-0.35654208 8.6574392 -0.97357243
-0.32934332 8.6585159 -0.97357243
-0.30213672 8.6595087 -0.97357243
-0.27524039 8.6703472 -0.97469407
-0.24855641 8.6910353 -0.97693735
-0.22149889 8.7017078 -0.97805899
-0.19458719 8.722229 -0.98030221
-0.16602598 8.7426977 -0.9825455
-0.14039299 8.7630224 -0.98478872
-0.11310642 8.7832928 -0.98703206
-0.084067427 8.7935553 -0.98815358
-0.056552209 8.8136501 -0.99039686
-0.028890219 8.8237209 -0.99151856
-0.0011550821 8.8535786 -0.99488336
0.026803762 8.8932867 -0.99936992
0.055016804 8.9329052 -1.0038564
-0.77843899 8.8658161 0.0015463616
-0.74551076 8.8084335 0.0015358897
-0.71457905 8.7708645 0.0015289084
-0.68466896 8.7431583 0.0015236724
-0.65644783 8.7352943 0.0015219271
-0.62684232 8.7073908 0.0015166911
-0.59672987 8.6694126 0.0015097097
-0.56883019 8.6612654 0.0015079643
-0.53948051 8.6531248 0.0015062192
-0.51170135 8.6447945 0.0015044737
-0.48454157 8.6463594 0.0015044737
-0.45790729 8.6578245 0.0015062192
-0.43170011 8.6791954 0.0015097097
-0.40490022 8.6904984 0.001511455
-0.37911585 8.6916609 0.001511455
-0.35110039 8.7128534 0.0015149456
-0.32372758 8.7139139 0.0015149456
-0.29668897 8.7248821 0.0015166911
-0.26927865 8.725771 0.0015166911
-0.24242412 8.7465668 0.0015201818
-0.21544152 8.7672787 0.0015236724
-0.18811017 8.7779102 0.0015254177
-0.16071878 8.788456 0.0015271631
-0.13326301 8.7989168 0.0015289084
-0.10456534 8.8393068 0.0015358897
-0.077330545 8.8995886 0.0015463616
-0.04948293 8.9197884 0.0015498523
-0.021592425 8.9698992 0.0015585789
-1.4584798 9.4500818 0.38079399
-1.4241627 9.4351053 0.37999487
-1.3916066 9.4197607 0.37919572
-1.3605845 9.4141951 0.37879613
-1.3282188 9.3986349 0.37799698
-1.294325 9.3831892 0.37719783
-1.262185 9.367403 0.37639871
-1.2288544 9.3415995 0.37519994
-1.1969699 9.3255911 0.37440082
-1.1602577 9.2698126 0.37200338
-1.1251119 9.2238159 0.37000552
-1.0879163 9.1578445 0.36720848
-1.0545758 9.1215105 0.36561018
-1.0225848 9.0949879 0.36441147
-0.98861247 9.0484877 0.36241359
-0.95598572 9.0118017 0.36081532
-0.92462069 8.9849405 0.35961658
-0.89383638 8.978013 0.35921702
-0.86277044 8.9509373 0.35801831
-0.83096224 8.913806 0.35642001
-0.79850119 8.8666115 0.35442212
-0.76789039 8.8191662 0.35242423
-0.7336759 8.761919 0.35002682
-0.6997779 8.6844978 0.34683019
-0.66943306 8.6468019 0.34523189
-0.63639337 8.5691423 0.34203532
-0.60806614 8.5511656 0.34123617
-0.57635993 8.5032864 0.33923832
-0.5458172 8.4452257 0.33684084
-0.51746464 8.4169779 0.33564213
-0.49044085 8.4085865 0.33524254
-0.4634794 8.4001093 0.33484301
-0.43708846 8.4015236 0.33484301
-0.41117439 8.4128351 0.33524254
-0.38608867 8.4440317 0.33644131
-0.36039701 8.465169 0.33724043
-0.33573753 8.5161819 0.33923832
-0.31004968 8.5471516 0.34043702
-0.28351739 8.5580702 0.34083661
-0.25721705 8.5788946 0.34163576
-0.23078862 8.599637 0.34243488
-0.20272644 8.6203346 0.34323406
-0.17695232 8.6109076 0.34283447
-0.15023085 8.631402 0.34363362
-0.12214401 8.6718168 0.34523189
-0.095312804 8.7121239 0.34683019
-0.068515547 8.7923155 0.35002682
-0.041175291 8.8624306 0.35282382
-0.013381725 8.9224672 0.35522124
0.01516937 9.1522818 0.36441147
0.047138136 9.4419451 0.37599912
0.077322587 9.5016994 0.37839654
0.1068018 9.6113338 0.38279188
-0.71595979 8.7806931 -0.041325815
-0.68525457 8.743021 -0.041137327
-0.65703738 8.7351589 -0.041090209
-0.62743819 8.7072573 -0.040948842
-0.59871089 8.6892328 -0.040854599
-0.57010299 8.671114 -0.040760353
-0.54223752 8.6628809 -0.040713232
-0.51442945 8.6545601 -0.040666111
-0.48723438 8.6561337 -0.040666111
-0.46056762 8.6676064 -0.040713232
-0.43383363 8.6789989 -0.040760353
-0.40656677 8.6803188 -0.040760353
-0.37972572 8.6915436 -0.040807478
-0.35282278 8.7026863 -0.040854599
-0.32548189 8.7037516 -0.040854599
-0.29695556 8.714776 -0.040901717
-0.26988411 8.7256613 -0.040948842
-0.24246682 8.7264662 -0.040948842
-0.21554042 8.747179 -0.041043088
-0.18806045 8.7478132 -0.041043088
-0.16094162 8.7683573 -0.041137327
-0.13369092 8.7888174 -0.041231573
-0.10643655 8.819191 -0.041372936
-0.079167217 8.8694801 -0.041608546
-0.051471267 8.899684 -0.04174991
-0.022071639 8.9498053 -0.041985523
-1.7269912 9.6094046 0.56237072
-1.6392243 9.4626923 0.55313259
-1.602775 9.4284306 0.55082309
-1.5715003 9.4235725 0.5502457
-1.5386553 9.4087601 0.54909092
-1.5075046 9.4036903 0.54851353
-1.476396 9.3985195 0.54793614
-1.4453397 9.3932438 0.54735875
-1.4097089 9.368372 0.54562664
-1.374431 9.33325 0.54331708
-1.3379588 9.2881193 0.54043019
-1.3017788 9.2428522 0.53754324
-1.2645346 9.187561 0.53407896
-1.2303224 9.1519136 0.53176945
-1.1992408 9.1258316 0.53003728
-1.162603 9.0802507 0.52715039
-1.1278591 9.0343294 0.5242635
-1.0994725 9.0378275 0.5242635
-1.0698948 9.0313234 0.52368605
-1.0415132 9.0346403 0.52368605
-1.0120081 9.0279474 0.52310866
-0.9836421 9.0310822 0.52310866
-0.95421088 9.0242004 0.52253133
-0.92483246 9.0172224 0.52195394
-0.89294171 9.0003719 0.52079916
-0.86369795 8.9931965 0.52022183
-0.83451277 8.9859257 0.51964444
-0.80358613 8.9586744 0.51791227
-0.77197224 8.9213715 0.51560271
-0.73474842 8.8143215 0.50925153
-0.69668841 8.7072487 0.5029003
-0.65853584 8.5700455 0.49481696
-0.62569135 8.492425 0.4901979
-0.59475821 8.4345989 0.48673356
-0.56216282 8.3467836 0.48153716
-0.53464252 8.3285837 0.48038238
-0.50663191 8.3003292 0.47865024
-0.47938749 8.2819471 0.47749546
-0.45336771 8.283412 0.47749546
-0.42733908 8.2847958 0.47749546
-0.40082121 8.2761269 0.4769181
-0.37527817 8.2873173 0.47749546
-0.34924206 8.288455 0.47749546
-0.32319808 8.2895117 0.47749546
-0.29751942 8.3004627 0.47807285
-0.27310607 8.3512459 0.48095977
-0.24750803 8.421957 0.48500144
-0.22212279 8.4626112 0.48731098
-0.19624308 8.4932098 0.48904315
-0.17038339 8.5337095 0.49135268
-0.14444539 8.5841103 0.49423954
-0.1164017 8.6144905 0.49597174
-0.08977814 8.6547441 0.49828127
-0.062981211 8.7048979 0.50116813
-0.035818353 8.7449865 0.50347769
-0.0084088799 8.7849894 0.50578725
0.019329978 8.8748207 0.51098365
0.049608979 9.3838606 0.54043019
0.080033667 9.5034542 0.54735875
0.11010754 9.5231218 0.54851353
0.14044689 9.5526752 0.5502457
0.170973 9.5821323 0.55197781
0.20189455 9.6214724 0.55428737
0.23258944 9.6407528 0.55544215
0.26509506 9.6598873 0.55659688
0.29663849 9.6989222 0.55890638
0.32776782 9.7178984 0.56006122
0.35974395 9.7567272 0.56237072
0.39157876 9.7854757 0.56410283
0.42359263 9.8141203 0.56583506
0.45796788 9.8525534 0.56814456
0.48989585 9.8710079 0.56929928
0.52246499 9.8993292 0.57103145
0.55467021 9.9175749 0.57218623
0.58757323 9.9456825 0.57391834
-0.75506538 8.8168688 -0.090718299
-0.72410035 8.7793322 -0.090306409
-0.69337869 8.7416897 -0.089894526
-0.66440713 8.7238827 -0.089688584
-0.63403332 8.7060909 -0.089482635
-0.60530275 8.6880884 -0.089276694
-0.57800186 8.6899471 -0.089276694
-0.5494476 8.6717606 -0.089070745
-0.52160811 8.6634617 -0.08896777
-0.49382624 8.6550741 -0.088864811
-0.46662965 8.6565838 -0.088864811
-0.43993369 8.6679926 -0.08896777
-0.41317067 8.6793203 -0.089070745
-0.3863408 8.6905661 -0.089173719
-0.35903323 8.6917372 -0.089173719
-0.33210185 8.7028151 -0.089276694
-0.30476066 8.7038145 -0.089276694
-0.2777288 8.7147236 -0.089379661
-0.24910703 8.7255926 -0.089482635
-0.2232146 8.7262926 -0.089482635
-0.19601835 8.736948 -0.08958561
-0.16722912 8.7475481 -0.089688584
-0.14020893 8.7780247 -0.0899975
-0.11275459 8.7884216 -0.090100475
-0.085503899 8.8287287 -0.090512358
-0.058005732 8.8689508 -0.090924248
-0.030255692 8.9090862 -0.091336131
-0.00068013783 8.9691343 -0.091953963
-2.1303892 9.8183365 0.81043708
-2.0953798 9.8054829 0.80882263
-2.0502384 9.7437325 0.80317223
-2.0135703 9.7208414 0.80075061
-1.9733883 9.6883936 0.79752177
-1.9370785 9.6652231 0.79510009
-1.895172 9.6125803 0.79025692
-1.8592902 9.5891275 0.7878353
-1.817992 9.5361681 0.78299201
-1.7807001 9.5026417 0.77976316
-1.7472404 9.4885807 0.77814871
-1.713887 9.4744053 0.77653438
-1.6806396 9.4601126 0.77491993
-1.649201 9.4555273 0.77411276
-1.6161666 9.4511175 0.77330554
-1.5848163 9.4564247 0.77330554
-1.5567493 9.4610853 0.77330554
-1.5270201 9.465929 0.77330554
-1.495725 9.4608335 0.77249831
-1.4675115 9.475338 0.77330554
-1.4392266 9.4897566 0.77411276
-1.1216025 9.1409922 0.74263161
-1.0728767 8.9762106 0.72890908
-0.72261143 8.8911762 0.71922255
-0.68928736 8.8238401 0.71357214
-0.62019885 8.2693233 0.66836846
-0.58855855 8.1916933 0.66191077
-0.55734354 8.1339321 0.65706748
-0.52921551 8.0958567 0.65383863
-0.50316387 8.087532 0.65303153
-0.47717398 8.0791216 0.6522243
-0.45179138 8.0805807 0.6522243
-0.42640433 8.0819607 0.6522243
-0.40149572 8.0932159 0.65303153
-0.37652478 8.104394 0.65383863
-0.35191202 8.1254539 0.65545309
-0.32717058 8.1464376 0.65706748
-0.30229649 8.1673479 0.65868193
-0.27795947 8.2081041 0.66191077
-0.25307018 8.2388258 0.66433239
-0.22799061 8.2694721 0.66675407
-0.20127094 8.3000755 0.66917568
-0.17560263 8.3205976 0.67079002
-0.15143411 8.3509798 0.67321169
-0.12534173 8.3613806 0.67401886
-0.097832546 8.3816833 0.67563331
-0.071579628 8.3919172 0.67644054
-0.045258921 8.4020672 0.6772477
-0.019130077 8.5716133 0.69097024
0.0079539549 8.6713047 0.69904238
0.036758073 8.6811981 0.69984961
0.064109541 8.6910057 0.70065671
0.091527618 8.7007284 0.70146394
0.11914548 8.7203312 0.70307839
0.14706132 8.7498112 0.70550001
0.19137916 9.5664568 0.77169108
0.22166742 9.5757732 0.77249831
0.25228909 9.5949574 0.77411276
0.28272918 9.6040792 0.77491993
0.31389004 9.6330299 0.7773416
0.34487376 9.6519175 0.77895594
0.37677053 9.6906252 0.78218478
0.4080601 9.7093105 0.78379923
0.43992636 9.7378511 0.78622085
0.47246286 9.7762432 0.78944969
0.50369555 9.7846651 0.79025692
0.53607959 9.8128901 0.79267848
0.56690371 9.8111582 0.79267848
0.59711027 9.7993793 0.79187125
0.63089329 9.8172388 0.7934857
0.665793 9.8748741 0.79832894
-0.92213744 9.0387821 0.26532182
-0.89076996 9.0117941 0.26444229
-0.85766524 8.9647999 0.26297644
-0.82579118 8.927639 0.26180372
-0.79057723 8.8505449 0.25945833
-0.75691062 8.8033266 0.25799251
-0.72509086 8.7558556 0.25652662
-0.69358158 8.708272 0.25506076
-0.66391569 8.6805096 0.25418124
-0.63369381 8.6426783 0.25300854
-0.60371161 8.604744 0.25183585
-0.57330394 8.5567331 0.25037
-0.54513383 8.5385418 0.24978364
-0.51769578 8.5302362 0.24949048
-0.48973003 8.5118628 0.24890412
-0.46243864 8.5033779 0.24861094
-0.43675917 8.5247536 0.2491973
-0.41046342 8.536068 0.24949048
-0.38500667 8.5672712 0.25037
-0.3589386 8.5884113 0.25095633
-0.33274156 8.6094732 0.25154269
-0.30418932 8.6105289 0.25154269
-0.277794 8.631422 0.25212902
-0.25097391 8.6422434 0.25242218
-0.22461425 8.672966 0.25330171
-0.19830237 8.7136011 0.2544744
-0.16960618 8.7242041 0.25476757
-0.14270627 8.7546778 0.25564712
-0.11575437 8.7950621 0.25681981
-0.08875829 8.8553524 0.25857884
-0.061389193 8.9155607 0.26033789
-0.033555474 8.9556913 0.26151058
-0.0055068568 9.0257225 0.26356277
0.023691375 9.4655046 0.27646241
-0.82894385 8.8889608 0.20634395
-0.79741889 8.8516941 0.20541552
-0.76613629 8.8143167 0.2044871
-0.73592842 8.7867947 0.20379077
-0.70348996 8.7292747 0.20239814
-0.67296797 8.6915712 0.20146969
-0.64417517 8.6737032 0.20100549
-0.61336285 8.6258249 0.19984494
-0.58422226 8.5977869 0.19914863
-0.55441356 8.5797234 0.19868439
-0.52622688 8.5614672 0.19822019
-0.49874458 8.5530977 0.19798808
-0.4718729 8.5546217 0.19798808
-0.44551352 8.5660458 0.19822019
-0.41909155 8.5773888 0.19845231
-0.39306143 8.5986366 0.19891651
-0.36647457 8.6098166 0.19914863
-0.34021273 8.6309042 0.19961283
-0.31382662 8.6519127 0.20007706
-0.28697866 8.6628475 0.20030917
-0.26036686 8.683691 0.20077337
-0.23308149 8.6844664 0.20077337
-0.20627651 8.7051449 0.20123759
-0.17913623 8.715745 0.20146969
-0.15246007 8.7562485 0.20239814
-0.12552653 8.796669 0.20332657
-0.096917681 8.8470192 0.2044871
-0.069521263 8.8972654 0.20564763
-0.041814797 8.9474258 0.20680818
-0.013811289 9.0074978 0.20820084
-0.87295395 8.9661446 0.15811341
-0.83542556 8.869297 0.15635072
-0.80420351 8.8521023 0.15599817
-0.77531844 8.8245687 0.15546936
-0.74506235 8.7970734 0.15494056
-0.7134639 8.769598 0.15441176
-0.68279636 8.7319241 0.15370668
-0.65237719 8.6941423 0.15300159
-0.62291706 8.6662312 0.15247278
-0.59432238 8.6481953 0.15212026
-0.56519026 8.6200876 0.15159144
-0.53686619 8.6018629 0.1512389
-0.50925159 8.5935259 0.15106264
-0.48113665 8.5751181 0.15071011
-0.45524484 8.5965557 0.15106264
-0.42922765 8.6179171 0.15141518
-0.40215269 8.6192226 0.15141518
-0.37593901 8.6404209 0.15176772
-0.34919029 8.6515503 0.15194398
-0.32237998 8.6625967 0.15212026
-0.29398832 8.6736097 0.15229651
-0.26673907 8.6744909 0.15229651
-0.23976113 8.6852808 0.15247278
-0.21296059 8.7059822 0.15282533
-0.18623883 8.7365971 0.15335414
-0.15933143 8.7671289 0.15388294
-0.1320857 8.7875814 0.15423548
-0.10482996 8.8179464 0.15476428
-0.077636577 8.8782206 0.1558219
-0.049962007 8.9184141 0.15652698
-0.020491524 8.9685221 0.15740831
0.0077665886 9.0485306 0.15881848
-0.84355378 8.8990793 0.10562484
-0.78062069 8.8245173 0.1046754
-0.74952024 8.7870712 0.10420069
-0.71866286 8.7495174 0.10372597
-0.69039196 8.7417631 0.10360729
-0.66067284 8.7139759 0.10325126
-0.62962228 8.6861982 0.10289522
-0.60096115 8.6681814 0.10265785
-0.57176548 8.6400928 0.10230182
-0.5433749 8.6218863 0.10206445
-0.51510435 8.6035881 0.1018271
-0.48806942 8.6051636 0.1018271
-0.46103424 8.6066542 0.1018271
-0.4339945 8.6080599 0.1018271
-0.40834787 8.6393461 0.10218313
-0.38120109 8.6405869 0.10218313
-0.35445821 8.6517334 0.10230182
-0.32802066 8.6727877 0.10253917
-0.30077383 8.6737757 0.10253917
-0.27413711 8.6946678 0.10277653
-0.24557842 8.7055244 0.10289522
-0.21999617 8.7162104 0.10301389
-0.19304277 8.7368526 0.10325126
-0.16595718 8.757412 0.10348862
-0.13721544 8.7779102 0.10372597
-0.10987663 8.798295 0.10396334
-0.082585633 8.8385925 0.10443805
-0.055098373 8.8888035 0.10503145
-0.027296463 8.9389296 0.10562484
0.0023815208 8.9789677 0.10609956
-0.69289404 8.8352823 -0.35590324
-0.66286659 8.8075256 -0.35469407
-0.63302028 8.7796679 -0.35348484
-0.60543621 8.7816124 -0.35348484
-0.57717925 8.7735023 -0.35308182
-0.54835308 8.7553282 -0.35227567
-0.51964676 8.7370605 -0.35146958
-0.49106064 8.7186975 -0.35066342
-0.46366414 8.7201977 -0.35066342
-0.43576217 8.7116318 -0.35026035
-0.40934113 8.7329197 -0.3510665
-0.38190499 8.7341623 -0.3510665
-0.35446048 8.7353191 -0.3510665
-0.32701704 8.7363892 -0.3510665
-0.29839092 8.7474117 -0.35146958
-0.27122539 8.7582922 -0.35187259
-0.24399446 8.7690897 -0.35227567
-0.21669836 8.7798014 -0.35267875
-0.18911122 8.7804394 -0.35267875
-0.16018116 8.791008 -0.35308182
-0.13272071 8.8014574 -0.35348484
-0.10532174 8.8218136 -0.35429099
-0.077702031 8.8320932 -0.35469407
-0.050202407 8.8722601 -0.35630628
-0.022487234 8.9223328 -0.35832158
0.005542024 8.9523354 -0.35953078
0.033790953 8.9922409 -0.36114302
-0.71424252 8.8616428 -0.41118503
-0.68408054 8.8339653 -0.40979275
-0.65484154 8.8161478 -0.40886456
-0.6250059 8.78827 -0.40747228
-0.59739482 8.7901897 -0.40747228
-0.5671854 8.7521505 -0.40561593
-0.53692865 8.7340431 -0.40468776
-0.50890464 8.7257147 -0.40422368
-0.48093826 8.7172956 -0.40375957
-0.4535462 8.7187643 -0.40375957
-0.42664403 8.7301235 -0.40422368
-0.39967498 8.7413998 -0.40468776
-0.37330619 8.7325668 -0.40422368
-0.34434554 8.733757 -0.40422368
-0.31690708 8.7347956 -0.40422368
-0.28946552 8.7357473 -0.40422368
-0.26262423 8.7565832 -0.40515181
-0.23538004 8.7673502 -0.40561593
-0.2080754 8.7780333 -0.40608004
-0.18070601 8.7886314 -0.40654412
-0.15327205 8.7991419 -0.4070082
-0.12576918 8.8095684 -0.40747228
-0.096782371 8.829915 -0.40840051
-0.069278955 8.8601418 -0.40979275
-0.041688915 8.9102621 -0.41211322
-0.013732351 8.9303265 -0.41304138
0.014405649 8.9902611 -0.41582596
-0.72798979 8.8644791 -1.2318472
-0.69541979 8.8074827 -1.2235799
-0.66397446 8.7602444 -1.2166903
-0.63428026 8.7326527 -1.2125566
-0.60476589 8.7049608 -1.2084228
-0.57608885 8.6870537 -1.205667
-0.54690433 8.6591673 -1.2015334
-0.51909971 8.6509552 -1.2001555
-0.49135211 8.6426554 -1.1987776
-0.46365717 8.6342659 -1.1973996
-0.43653068 8.6356802 -1.1973996
-0.40987509 8.6469021 -1.1987776
-0.38226503 8.6382523 -1.1973996
-0.35553947 8.6493063 -1.1987776
-0.32836166 8.6503811 -1.1987776
-0.30153608 8.6612682 -1.2001555
-0.2731303 8.672121 -1.2015334
-0.24645965 8.6927366 -1.2042891
-0.21940638 8.7033691 -1.205667
-0.1925088 8.7238197 -1.2084228
-0.1652959 8.7342844 -1.2098007
-0.13649146 8.744688 -1.2111787
-0.10914935 8.7549772 -1.2125566
-0.081743933 8.7651806 -1.2139344
-0.05420807 8.7653942 -1.2139344
-0.026739605 8.7853308 -1.2166903
0.00085928914 8.7853708 -1.2166903
0.02851003 8.8051338 -1.2194461
0.056399036 8.8446188 -1.2249577
0.084629282 8.893919 -1.2318472
-0.72219753 8.8383598 -0.46264985
-0.6913085 8.8007622 -0.46055642
-0.66215563 8.7829733 -0.45950967
-0.6316911 8.7451687 -0.45741624
-0.60352916 8.7371473 -0.45689288
-0.5741142 8.7091055 -0.4553228
-0.54550028 8.6909323 -0.45427606
-0.51760316 8.6826353 -0.45375276
-0.49032444 8.6842184 -0.45375276
-0.4625113 8.6757431 -0.45322937
-0.43524989 8.6771536 -0.45322937
-0.40845579 8.6884537 -0.45375276
-0.38072371 8.6797171 -0.45322937
-0.3538591 8.6908484 -0.45375276
-0.32692829 8.7018957 -0.45427606
-0.2980696 8.7029324 -0.45427606
-0.27103207 8.7138081 -0.45479944
-0.24393372 8.7245989 -0.4553228
-0.21677028 8.7353058 -0.45584619
-0.18954197 8.7459278 -0.45636955
-0.1624274 8.766449 -0.45741624
-0.13503878 8.7769012 -0.45793962
-0.10782659 8.8072386 -0.45950967
-0.080247365 8.8175201 -0.46003306
-0.05277247 8.8576727 -0.46212649
-0.023476608 8.8877583 -0.46369657
0.004476646 8.9277325 -0.46579
-0.69522518 8.8229876 -0.83285761
-0.66447258 8.7854214 -0.82909328
-0.63396764 8.7477484 -0.82532895
-0.60578936 8.7397661 -0.82438791
-0.57700419 8.7217588 -0.82250571
-0.54770613 8.6937218 -0.81968248
-0.51978695 8.685463 -0.81874138
-0.49192974 8.6771126 -0.81780028
-0.46466851 8.6786156 -0.81780028
-0.43689552 8.6700897 -0.81685919
-0.40965202 8.6714191 -0.81685919
-0.3824091 8.6726637 -0.81685919
-0.35516238 8.6738224 -0.81685919
-0.32791215 8.6748953 -0.81685919
-0.30065408 8.6758823 -0.81685919
-0.27371734 8.6867352 -0.81780028
-0.24490921 8.6875944 -0.81780028
-0.21812709 8.7082262 -0.81968248
-0.19099358 8.7188225 -0.82062358
-0.16379103 8.729332 -0.82156461
-0.13685215 8.7596674 -0.82438791
-0.10793149 8.7700272 -0.82532895
-0.080574878 8.7902336 -0.82721114
-0.053026348 8.8003988 -0.82815224
-0.025484227 8.8303881 -0.83097547
0.00225047 8.8602915 -0.83379871
0.030195914 8.9000635 -0.83756304
0.058391262 8.9397459 -0.84132731
-0.70698011 8.8165989 -0.50925112
-0.67699754 8.7889137 -0.50751901
-0.64566535 8.76124 -0.5057869
-0.61674625 8.7433071 -0.50463212
-0.58794624 8.7252798 -0.50347733
-0.55989939 8.7171202 -0.50289994
-0.53069997 8.68894 -0.50116777
-0.5034014 8.6905642 -0.50116777
-0.47501808 8.6721659 -0.50001305
-0.44777247 8.6736155 -0.50001305
-0.42147231 8.6949234 -0.50116777
-0.39370957 8.6862316 -0.50059044
-0.36642018 8.6874256 -0.50059044
-0.33951041 8.6985092 -0.50116777
-0.31253001 8.7095098 -0.50174516
-0.28516787 8.7104492 -0.50174516
-0.25685596 8.7313051 -0.50289994
-0.23095116 8.732029 -0.50289994
-0.20396705 8.7526722 -0.50405473
-0.17494065 8.7533007 -0.50405473
-0.14760366 8.7637892 -0.50463212
-0.12033321 8.7841749 -0.5057869
-0.09283679 8.7944918 -0.50636423
-0.065412663 8.8246899 -0.5080964
-0.037795022 8.8548021 -0.50982857
-0.0084413039 8.8848276 -0.51156068
0.019637365 8.9447107 -0.51502496
-0.74943078 8.87988 -0.56749916
-0.7182743 8.8424053 -0.56494576
-0.69205874 8.8645163 -0.56622249
-0.66120082 8.8268414 -0.56366903
-0.63058656 8.7890606 -0.56111562
-0.60296828 8.7909985 -0.56111562
-0.57271713 8.7530174 -0.55856222
-0.54333717 8.7248945 -0.55664712
-0.51652086 8.7365189 -0.55728543
-0.48906827 8.7380991 -0.55728543
-0.46108276 8.7296276 -0.55664712
-0.43315527 8.7210655 -0.55600876
-0.40622637 8.7323523 -0.55664712
-0.37834862 8.7236156 -0.55600876
-0.35134932 8.7347326 -0.55664712
-0.32238162 8.7358494 -0.55664712
-0.29527974 8.7467918 -0.55728543
-0.26780057 8.7476768 -0.55728543
-0.24087492 8.7684269 -0.55856222
-0.21332806 8.7691402 -0.55856222
-0.18467891 8.789753 -0.55983889
-0.15706535 8.7902899 -0.55983889
-0.1300633 8.8306541 -0.56239229
-0.10232151 8.8310184 -0.56239229
-0.074845739 8.8612347 -0.56430739
-0.047185816 8.8913641 -0.56622249
-0.019337324 8.9214077 -0.56813753
0.0087029589 8.9613428 -0.57069093
-0.77482593 8.8845072 -0.15497737
-0.71249181 8.8094759 -0.15358119
-0.68403268 8.8017025 -0.15340665
-0.65412545 8.7738981 -0.15288308
-0.62512261 8.7559643 -0.15253402
-0.59692603 8.7479095 -0.1523595
-0.56813055 8.7297878 -0.15201046
-0.54069883 8.7315302 -0.15201046
-0.51208043 8.7132235 -0.15166141
-0.48470566 8.7147894 -0.15166141
-0.45732611 8.7162685 -0.15166141
-0.43043631 8.7276487 -0.15183593
-0.40254912 8.7189703 -0.15166141
-0.37559295 8.7301807 -0.15183593
-0.3481656 8.7313175 -0.15183593
-0.31958082 8.7424164 -0.15201046
-0.2921153 8.7433767 -0.15201046
-0.26495111 8.7542458 -0.15218499
-0.23772608 8.765029 -0.1523595
-0.21068199 8.7857237 -0.15270856
-0.18154594 8.7863741 -0.15270856
-0.15448745 8.8168907 -0.15323213
-0.12663403 8.8073349 -0.15305759
-0.099084176 8.817688 -0.15323213
-0.07173226 8.8579473 -0.15393022
-0.044184241 8.9081211 -0.15480284
-0.016297253 8.9482098 -0.15550093
0.011852922 8.998209 -0.15637356
-0.76192105 8.8548374 -0.62955093
-0.67385578 8.8019514 -0.62529236
-0.6447323 8.7841301 -0.62387294
-0.61503106 8.7562618 -0.62174368
-0.58551133 8.7282934 -0.61961436
-0.55592698 8.720233 -0.61890465
-0.52731895 8.7020235 -0.61748511
-0.4994005 8.6936789 -0.61677533
-0.47154427 8.6852446 -0.61606556
-0.4447692 8.6966448 -0.61677533
-0.41744685 8.697999 -0.61677533
-0.39011577 8.6992674 -0.61677533
-0.36278543 8.7004499 -0.61677533
-0.33583793 8.7115145 -0.61748511
-0.30811429 8.7025576 -0.61677533
-0.2817407 8.7333918 -0.61890465
-0.25459614 8.7442036 -0.61961436
-0.22738643 8.7549324 -0.62032413
-0.20034161 8.775548 -0.62174368
-0.17297101 8.7861061 -0.62245339
-0.14553143 8.7965803 -0.62316316
-0.11816819 8.8169422 -0.62458271
-0.089134552 8.8372335 -0.62600213
-0.061657812 8.877368 -0.62884116
-0.033849683 8.8974676 -0.63026071
-0.0059285723 8.9374294 -0.63309973
0.022238562 8.9773026 -0.6359387
-0.75952011 8.8449945 -0.20518136
-0.67307013 8.8118877 -0.20425293
-0.64392024 8.7940178 -0.20378871
-0.61488467 8.7760525 -0.20332451
-0.58530337 8.7480154 -0.20262818
-0.55629033 8.7499084 -0.20262818
-0.52819502 8.7416344 -0.20239609
-0.49900964 8.7133074 -0.20169976
-0.47217247 8.7248154 -0.20193186
-0.44425043 8.7162714 -0.20169976
-0.41686642 8.7176237 -0.20169976
-0.38992661 8.728878 -0.20193186
-0.36250323 8.7300596 -0.20193186
-0.33545721 8.7411451 -0.20216398
-0.30764148 8.7321653 -0.20193186
-0.28085372 8.7530727 -0.20239609
-0.25364619 8.7639046 -0.20262818
-0.22636881 8.7746525 -0.2028603
-0.19903104 8.7853146 -0.2030924
-0.17143135 8.7858973 -0.2030924
-0.14416145 8.8063831 -0.2035566
-0.11649117 8.8067932 -0.2035566
-0.087589376 8.837122 -0.20425293
-0.05996706 8.8573475 -0.20471713
-0.032333702 8.9074783 -0.20587766
-0.0043789614 8.947525 -0.20680609
0.023807384 8.9774857 -0.20750239
-0.75701171 8.8817329 -0.67970252
-0.69571775 8.8167334 -0.67435658
-0.6650126 8.7791061 -0.67130172
-0.63671029 8.7712069 -0.67053801
-0.60777098 8.7532701 -0.66901058
-0.57895523 8.7352381 -0.66748315
-0.55025882 8.7171116 -0.66595578
-0.52168202 8.6988907 -0.66442829
-0.49378407 8.6905317 -0.66366458
-0.4664807 8.6920404 -0.66366458
-0.43917269 8.6934633 -0.66366458
-0.41139063 8.6848402 -0.66290087
-0.38410094 8.6860895 -0.66290087
-0.35721916 8.697216 -0.66366458
-0.32989541 8.6982956 -0.66366458
-0.30291295 8.7092533 -0.66442829
-0.27434143 8.7201767 -0.66519201
-0.24750164 8.7409286 -0.66671944
-0.22004114 8.741663 -0.66671944
-0.19301349 8.762248 -0.66824687
-0.1656725 8.7727804 -0.66901058
-0.1382672 8.783227 -0.66977423
-0.11091682 8.8035583 -0.67130172
-0.0834447 8.8238039 -0.67282909
-0.055846468 8.8439636 -0.67435658
-0.026629519 8.8839836 -0.67741138
0.0012932026 8.9239063 -0.68046623
0.029436439 8.9537706 -0.68275732
-0.68972009 8.7993383 -0.25156757
-0.65983075 8.7715578 -0.250709
-0.63155091 8.7636175 -0.25042278
-0.6040172 8.7655582 -0.25042278
-0.5745163 8.7374887 -0.2495642
-0.54644257 8.7292738 -0.24927799
-0.51783502 8.71099 -0.2487056
-0.48934317 8.6926146 -0.24813321
-0.46203324 8.694109 -0.24813321
-0.43422174 8.6855335 -0.24784701
-0.40740001 8.6968403 -0.24813321
-0.38007259 8.6980772 -0.24813321
-0.35314894 8.7092152 -0.24841939
-0.32578754 8.7102814 -0.24841939
-0.29876307 8.7212524 -0.2487056
-0.27014735 8.7321863 -0.24899179
-0.24243397 8.7229996 -0.2487056
-0.21576248 8.7536983 -0.2495642
-0.18847483 8.7643251 -0.24985038
-0.16112256 8.774869 -0.25013658
-0.13355123 8.7753315 -0.25013658
-0.10622045 8.7956991 -0.250709
-0.078675821 8.8059835 -0.25099516
-0.051179279 8.8361759 -0.25185376
-0.023518246 8.876276 -0.25299856
0.0059606591 8.9262838 -0.25442952
0.03412731 8.9562092 -0.25528815
-0.71754915 8.8512497 -0.72062337
-0.68666726 8.8137112 -0.71737361
-0.65602368 8.7760668 -0.7141239
-0.62621325 8.7682514 -0.71331149
-0.59731972 8.7502871 -0.71168667
-0.5685451 8.7322273 -0.71006179
-0.53927976 8.7041264 -0.7076245
-0.51077092 8.6858768 -0.70599961
-0.48348206 8.687439 -0.70599961
-0.45618844 8.6889143 -0.70599961
-0.42889029 8.6903048 -0.70599961
-0.40112945 8.681653 -0.7051872
-0.374277 8.6928282 -0.70599961
-0.34696698 8.6939611 -0.70599961
-0.31965351 8.6950083 -0.70599961
-0.29266566 8.7059307 -0.70681208
-0.26590511 8.7267332 -0.70843697
-0.23875523 8.7374878 -0.70924932
-0.21130556 8.7381954 -0.70924932
-0.18426087 8.7587461 -0.7108742
-0.15572584 8.7892046 -0.71331149
-0.12810948 8.7896509 -0.71331149
-0.10060437 8.7999763 -0.7141239
-0.073188715 8.8301487 -0.7165612
-0.045539241 8.8502693 -0.71818608
-0.017787216 8.8902369 -0.72143579
0.011766164 8.9301138 -0.72468549
0.038507864 8.9798746 -0.72874767
-0.72702533 8.8142996 -0.30746454
-0.6985479 8.8065777 -0.30711558
-0.66786772 8.7688675 -0.30571958
-0.63878506 8.7710333 -0.30571958
-0.61053962 8.7630262 -0.3053706
-0.58037478 8.7250128 -0.30397463
-0.55171108 8.7068434 -0.3032766
-0.52376169 8.6985579 -0.30292761
-0.49586985 8.6901827 -0.30257863
-0.46803117 8.6817179 -0.30222964
-0.44075561 8.6831455 -0.30222964
-0.41253757 8.6645212 -0.30153164
-0.38619164 8.6857433 -0.30222964
-0.35889924 8.6869135 -0.30222964
-0.33160788 8.6879978 -0.30222964
-0.3046568 8.6989851 -0.30257863
-0.2776399 8.7098875 -0.30292761
-0.24875501 8.7107601 -0.30292761
-0.22290656 8.7114601 -0.30292761
-0.1959748 8.7321014 -0.30362561
-0.16872892 8.7426662 -0.30397463
-0.13988939 8.753171 -0.30432361
-0.11239094 8.7535667 -0.30432361
-0.085340254 8.8038435 -0.30606857
-0.057742223 8.8140621 -0.30641758
-0.030164553 8.8541756 -0.30781356
-0.0007868082 8.8842077 -0.30886054
0.027342368 8.9441299 -0.31095451
