# .PCD v0.7 - Point Cloud Data file format
VERSION 0.7
FIELDS x y z
SIZE 4 4 4
TYPE F F F
COUNT 1 1 1
WIDTH 68
HEIGHT 1
VIEWPOINT 0 0 0 1 0 0 0
POINTS 68
DATA ascii
-22.805231 19.957771 -1.220873
-22.592424 19.89727 -1.2128118
-22.597115 20.027779 -1.2164392
-22.489334 20.058777 -1.214021
-22.489614 20.193314 -1.2176485
-22.285185 20.13661 -1.2099903
-22.221811 20.206526 -1.2099903
-21.996025 20.127867 -1.201123
-21.752392 20.023895 -1.1910465
-21.553926 19.973698 -1.1837913
-21.410673 19.966372 -1.1793578
-21.413429 20.095057 -1.1829852
-21.321127 20.134798 -1.181373
-21.265015 20.208559 -1.181776
-21.244755 20.316694 -1.1841944
-21.209629 20.411043 -1.1858066
-21.073608 20.408081 -1.181776
-22.674971 20.070667 -0.70211947
-22.202776 20.163038 -0.69538838
-22.095043 20.192225 -0.69399571
-24.098682 19.827757 -0.89236367
-24.159451 20.005383 -0.89694285
-24.073448 20.061979 -0.89608425
-23.956692 20.092546 -0.89408088
-23.965725 20.221558 -0.89665669
-23.577955 20.014399 -0.88435018
-23.454765 20.051107 -0.88234681
-23.414385 20.144255 -0.88320535
-23.298092 20.171907 -0.88120198
-22.539602 19.764271 -0.8571614
-22.567337 19.914352 -0.86059576
-22.728872 20.18429 -0.86918169
-22.516296 20.122366 -0.86345774
-22.334055 20.086052 -0.85887861
-22.218969 20.109158 -0.85687518
-22.340425 20.347145 -0.86403012
-22.033232 20.19433 -0.85458559
-21.705175 20.019463 -0.84428251
-22.169649 20.577192 -0.86488873
-20.998213 19.868395 -0.82653826
-21.073225 20.065243 -0.83197606
-20.981218 20.10368 -0.83083123
-24.373917 19.907303 -1.0975891
-24.234066 19.9203 -1.0940992
-24.040474 19.88802 -1.0881662
-24.077709 20.046589 -1.0927032
-23.983971 20.096457 -1.0913072
-23.867249 20.126595 -1.0888642
-23.727713 20.136799 -1.0853742
-23.352806 19.945074 -1.0710655
-23.327919 20.050922 -1.0728105
-23.090996 19.9737 -1.0647837
-23.003099 20.165943 -1.0668776
-22.834642 20.266275 -1.0647837
-22.610428 20.187473 -1.0571058
-22.457706 20.178236 -1.0529178
-21.779028 19.692255 -1.0239513
-22.134804 20.1479 -1.043844
-21.739828 19.913506 -1.0281391
-21.75798 20.056227 -1.0319781
-21.614279 20.049707 -1.0281391
-21.412405 19.987911 -1.0215082
-21.33144 20.045118 -1.0208102
-21.286627 20.136353 -1.0218573
-21.194113 20.161272 -1.0201123
-21.238943 20.331436 -1.0253472
-21.038233 20.2663 -1.0187162
-21.028297 20.391624 -1.0215082
