# .PCD v0.7 - Point Cloud Data file format
VERSION 0.7
FIELDS x y z
SIZE 4 4 4
TYPE F F F
COUNT 1 1 1
WIDTH 395
HEIGHT 1
VIEWPOINT 0 0 0 1 0 0 0
POINTS 395
DATA ascii
11.380831 36.453701 0.21972701
11.507346 36.45591 0.2199574
11.637008 36.467213 0.22024536
11.776297 36.485523 0.22059095
11.909631 36.484299 0.22082134
12.03358 36.475197 0.22099411
12.170236 36.50362 0.22139728
12.297615 36.503117 0.22162767
12.421973 36.513802 0.22191565
12.546365 36.502968 0.22208843
12.680668 36.520054 0.222434
12.814925 36.515553 0.22266439
12.959651 36.55994 0.22318275
13.091285 36.56612 0.22347073
13.229882 36.590645 0.2238739
13.361907 36.595875 0.22416186
14.168278 36.645325 0.22606254
14.526771 36.526222 0.22617772
11.298726 36.448849 0.0066531948
11.425519 36.430264 0.0066566854
11.55804 36.451385 0.0066671576
11.690804 36.472034 0.0066776294
11.817669 36.473175 0.0066846106
11.95086 36.492893 0.0066950829
12.065352 36.476261 0.006698573
12.205276 36.492954 0.0067090453
12.332681 36.492321 0.0067160269
12.469875 36.519646 0.006728244
12.603962 36.515903 0.0067352252
12.735072 36.523342 0.0067439522
12.872997 36.549179 0.0067561693
12.994454 36.527405 0.0067596599
13.139586 36.571095 0.006775368
14.490335 36.649315 0.0068713608
14.546106 36.455006 0.0068434356
11.301901 36.426487 -0.17953405
11.425278 36.419418 -0.1796754
11.55475 36.431011 -0.17991103
11.684407 36.442142 -0.18014663
11.811166 36.443306 -0.18033512
11.941178 36.453529 -0.18057072
12.071353 36.463303 -0.18080634
12.208053 36.491581 -0.18113619
12.345048 36.519363 -0.18146604
12.466177 36.499329 -0.18156028
12.600369 36.516697 -0.18184301
12.734774 36.533585 -0.18212573
12.875795 36.547745 -0.18240848
13.007309 36.554222 -0.18264408
13.142373 36.569641 -0.18292682
13.27768 36.584564 -0.18320954
13.392544 36.542675 -0.18320954
14.571166 36.509144 -0.1850473
11.143805 36.39996 -0.39160237
11.281768 36.441189 -0.39242616
11.402186 36.424641 -0.39263207
11.534668 36.445843 -0.39324993
11.664347 36.457043 -0.39376479
11.791131 36.458275 -0.39417666
11.930628 36.475998 -0.39479452
12.057714 36.476311 -0.39520639
12.184942 36.476181 -0.39561829
12.321866 36.50404 -0.39633909
12.446169 36.493542 -0.39664802
12.580303 36.510983 -0.39726582
12.708112 36.509048 -0.39767772
12.839332 36.516109 -0.39819258
12.977416 36.541553 -0.39891338
13.109034 36.547668 -0.39942828
13.240836 36.553303 -0.39994311
14.529452 36.469826 -0.40385604
10.797277 36.666462 1.119922
10.969807 36.406471 1.1140585
11.092859 36.400517 1.114938
11.221868 36.41325 1.1164038
11.354038 36.435081 1.1181629
11.480471 36.437363 1.1193357
11.655527 36.591606 1.125199
11.859227 36.83075 1.1337011
11.990823 36.798634 1.1339943
12.121991 36.808254 1.1354601
12.240718 36.779476 1.1357533
12.279761 36.513451 1.1287172
12.39121 36.465218 1.1284239
12.522038 36.494484 1.1304761
12.662802 36.530525 1.1328216
12.793784 36.516632 1.1337011
12.928456 36.532799 1.1354601
13.056611 36.529655 1.1366329
13.205228 36.582481 1.1395645
13.333774 36.578384 1.1407373
13.469344 36.592594 1.1424962
13.605119 36.606319 1.1442553
13.734091 36.600838 1.1454281
13.873781 36.622948 1.1474802
14.010197 36.635197 1.1492393
14.143208 36.63763 1.1507052
14.293659 36.665035 1.1530505
14.423406 36.657158 1.1542232
10.790524 36.727291 0.88781291
11.075127 36.423096 0.88293868
11.198307 36.41679 0.88363498
11.336826 36.436729 0.88502753
11.466233 36.44862 0.88618815
11.887774 36.975464 0.9008109
12.025497 37.004494 0.90243566
12.126091 36.919041 0.90127516
12.201075 36.75742 0.89825779
12.243392 36.500893 0.89291924
12.370832 36.500126 0.8938477
12.511245 36.515652 0.89524037
12.642243 36.523403 0.89640087
12.770115 36.521259 0.89732933
12.914762 36.565796 0.89941829
13.043003 36.56271 0.90034676
13.178126 36.577988 0.90173936
13.310058 36.583382 0.90289986
13.445621 36.597687 0.90429258
13.57443 36.592762 0.90522099
13.720873 36.634201 0.90731001
13.846496 36.618969 0.90800631
13.979307 36.621983 0.90916681
14.129422 36.650059 0.91102374
14.240881 36.596165 0.91079158
14.388664 36.634995 0.91288054
10.836076 36.541176 0.67123276
10.91923 36.401604 0.66929382
11.050949 36.42453 0.67035145
11.186353 36.435474 0.67123276
11.312618 36.438347 0.67193788
11.442007 36.450325 0.6728192
11.851048 36.939411 0.68321908
11.982456 36.949551 0.68410045
12.114046 36.959236 0.68498182
12.182926 36.778629 0.68233776
12.23494 36.550545 0.67881238
12.349702 36.511929 0.67881238
12.483744 36.52972 0.67987001
12.608229 36.518673 0.68039876
12.749253 36.554405 0.68180895
12.8837 36.549641 0.68251401
13.01858 36.565502 0.68357164
13.150303 36.571465 0.68445295
13.292431 36.60516 0.68586314
13.424591 36.610149 0.68674451
13.553423 36.605301 0.68744957
13.689359 36.618732 0.68850714
13.829044 36.641026 0.68974102
13.961163 36.622993 0.69026989
14.101282 36.644276 0.69150376
14.238072 36.655708 0.69256139
14.353154 36.610798 0.69256139
14.479132 36.593418 0.6930902
10.826241 36.56797 0.45216927
11.153301 36.385891 0.45121986
11.408636 36.400963 0.45228797
11.556171 36.469788 0.4535934
11.768339 36.738022 0.4573912
11.917609 36.8055 0.45869663
12.036484 36.756275 0.45857799
12.177036 36.79422 0.4595274
12.260837 36.660961 0.45834062
12.324703 36.470699 0.45644176
12.458608 36.488579 0.45715383
12.589503 36.496513 0.45774722
12.723844 36.513435 0.45845929
12.855094 36.520443 0.45905271
12.986512 36.526985 0.45964611
13.12488 36.551872 0.46047685
13.246462 36.529263 0.46071422
13.792644 36.59383 0.46368122
13.928155 36.585266 0.46415594
14.194777 36.61137 0.46558008
14.301519 36.526855 0.46510535
14.467662 36.611935 0.46676686
8.8225622 36.004272 -1.4937456
8.9524755 36.044266 -1.4965671
9.0656624 36.015965 -1.4965671
9.1911001 36.035717 -1.4985824
9.3142719 36.045357 -1.5001944
9.4401054 36.064255 -1.5022099
9.5584717 36.053738 -1.5030161
9.6846333 36.071785 -1.5050313
9.8136406 36.09903 -1.5074496
10.064376 36.123291 -1.5110772
10.192248 36.118568 -1.5122864
10.311148 36.105591 -1.5130926
10.435611 36.111416 -1.5147047
10.565838 36.135994 -1.5171231
10.699135 36.169697 -1.5199445
10.943532 36.159145 -1.5223629
11.074628 36.181908 -1.5247812
11.197097 36.175579 -1.5259906
11.328583 36.197441 -1.5284088
11.457304 36.209305 -1.5304241
11.583188 36.211197 -1.5320364
11.712431 36.201111 -1.5332457
11.847925 36.209564 -1.5352609
11.974179 36.210102 -1.5368731
12.113197 36.248127 -1.5400976
12.239791 36.247765 -1.5417099
12.363411 36.258575 -1.5437253
12.490267 36.257347 -1.5453374
12.623802 36.274551 -1.5477557
12.760595 36.279625 -1.5497712
12.891221 36.286438 -1.5517864
13.022035 36.292778 -1.5538018
13.166607 36.336243 -1.5574293
13.290987 36.322853 -1.5586385
13.425798 36.337158 -1.5610569
13.553867 36.332245 -1.5626692
13.69258 36.354946 -1.5654906
13.828018 36.36779 -1.5679088
14.092344 36.373363 -1.5719395
14.241982 36.400879 -1.575164
14.356282 36.355953 -1.575164
14.500005 36.384933 -1.5783885
14.640323 36.404099 -1.5812099
14.762124 36.376446 -1.5820161
14.912966 36.401264 -1.5852405
8.7523098 36.032227 -1.7208511
8.8774004 36.053055 -1.7231717
9.0003071 36.063751 -1.7250279
9.124752 36.053074 -1.7259561
9.25037 36.072613 -1.7282765
9.3711796 36.07238 -1.7296689
9.4971609 36.091064 -1.7319894
9.6156559 36.080353 -1.7329175
9.744566 36.10783 -1.7357019
10.125746 36.137676 -1.7417352
10.252845 36.15374 -1.7440556
10.374656 36.150154 -1.745448
10.502094 36.165352 -1.7477684
10.879861 36.189129 -1.7538017
11.005116 36.192997 -1.7556579
11.133437 36.205986 -1.7579783
11.264915 36.228069 -1.7607629
11.390986 36.209572 -1.7616912
11.528917 36.24976 -1.765404
11.654964 36.2514 -1.7672602
11.784224 36.262108 -1.7695806
11.907433 36.253384 -1.770973
12.033822 36.274776 -1.7737575
12.169931 36.282028 -1.7760781
12.303085 36.300381 -1.7788625
12.433239 36.308804 -1.7811829
12.566645 36.305134 -1.7830393
12.697117 36.312626 -1.7853597
12.821127 36.300812 -1.7867521
12.961947 36.335621 -1.7904648
13.092957 36.341713 -1.7927852
13.220718 36.337952 -1.7946416
13.358937 36.36187 -1.7978902
13.493944 36.375919 -1.8006748
13.625667 36.380123 -1.8029953
14.035329 36.406109 -1.810885
14.171379 36.417686 -1.8136693
14.27476 36.345093 -1.8122771
14.41463 36.365074 -1.8155258
14.577024 36.440189 -1.821559
14.702662 36.421997 -1.8229512
14.85092 36.458889 -1.8271281
8.7163801 36.009212 -1.9395704
8.8437605 36.039841 -1.9427106
8.9593458 36.021572 -1.9432341
9.0822268 36.031982 -1.9453274
9.2052622 36.041973 -1.9474208
9.320962 36.022541 -1.9479442
12.785597 36.311974 -2.0154576
14.526509 36.415726 -2.0526161
14.633378 36.351387 -2.0515695
11.397273 36.327888 -0.66388953
11.526447 36.339558 -0.66476214
11.655807 36.350777 -0.66563475
11.791885 36.338398 -0.66615832
11.937129 36.396187 -0.6679036
12.063984 36.396469 -0.66860163
12.194154 36.405792 -0.6694743
12.321277 36.40519 -0.67017239
12.448621 36.425243 -0.67121953
12.576055 36.423759 -0.67191768
12.719824 36.447937 -0.67313933
12.85752 36.473812 -0.67436099
12.985447 36.470921 -0.67505908
13.120246 36.486397 -0.67610621
13.25188 36.491989 -0.67697889
13.393979 36.52528 -0.67837501
14.609151 36.584522 -0.68692672
14.664235 36.39006 -0.68413436
10.171807 36.156246 -0.87109232
10.667761 36.169407 -0.87457389
11.177436 36.214001 -0.87898391
11.306405 36.205364 -0.87968016
11.435136 36.217339 -0.88084078
11.564071 36.228848 -0.88200128
11.690104 36.2304 -0.88292974
11.831755 36.279037 -0.88501859
11.955053 36.270176 -0.88571495
12.081591 36.270378 -0.88664341
12.208227 36.270142 -0.88757175
12.338202 36.278938 -0.88873237
12.474689 36.285095 -0.88989288
12.601733 36.283501 -0.89082122
12.73551 36.300339 -0.89221388
12.866197 36.307259 -0.89337438
13.007138 36.341965 -0.89523131
13.138231 36.347935 -0.89639181
13.272917 36.362831 -0.89778447
13.404387 36.367851 -0.89894497
13.536001 36.37241 -0.90010548
14.077637 36.402138 -0.90521187
14.217366 36.422928 -0.90683657
14.339046 36.396687 -0.90730077
14.486552 36.435074 -0.90938973
14.608385 36.407944 -0.90985399
14.760221 36.454529 -0.912175
9.0825186 36.006886 -1.0620788
9.2129183 36.045967 -1.0640821
9.3336277 36.045876 -1.0649408
9.4569836 36.055046 -1.0660856
9.580471 36.063805 -1.0672303
10.101019 36.160244 -1.073813
10.211864 36.11871 -1.0735266
10.32722 36.117088 -1.0743853
10.45732 36.142071 -1.0761025
10.582718 36.126385 -1.0766748
11.088604 36.162567 -1.0818264
11.226239 36.18288 -1.0835437
11.348847 36.176041 -1.0844022
11.480573 36.19738 -1.0861194
11.60949 36.208725 -1.0875504
11.735511 36.210114 -1.0886952
11.867896 36.230053 -1.0904123
11.997362 36.24004 -1.0918432
12.127009 36.249569 -1.0932744
12.253632 36.249168 -1.094419
12.386834 36.267254 -1.0961363
12.513768 36.265953 -1.0972811
12.647378 36.283092 -1.0989982
12.7779 36.290325 -1.1004293
12.918283 36.304253 -1.1021464
13.045792 36.301121 -1.1032913
13.176837 36.306931 -1.1047221
13.31491 36.331055 -1.1067256
13.446324 36.335918 -1.1081566
13.577902 36.340317 -1.1095876
13.706128 36.334885 -1.1107323
13.983544 36.357574 -1.1141667
14.119398 36.369373 -1.1158838
14.259112 36.389984 -1.1178873
14.391743 36.391491 -1.1193184
14.528247 36.401791 -1.1210355
14.638796 36.346703 -1.1207492
14.801837 36.420918 -1.1244699
9.0680332 36.043781 -1.2965162
9.1861591 36.034485 -1.2972143
9.3068171 36.034477 -1.2982613
9.4414568 36.06142 -1.3003552
9.5623856 36.060566 -1.3014022
9.6860132 36.068947 -1.3027982
10.057717 36.091583 -1.3069862
10.187353 36.117512 -1.30908
10.311743 36.123768 -1.3104761
10.436273 36.129601 -1.3118721
10.563745 36.1446 -1.313617
10.81357 36.154102 -1.3164089
10.938674 36.158215 -1.3178049
11.073155 36.169521 -1.3195499
11.204468 36.191833 -1.3216439
11.327087 36.185062 -1.3226908
11.452773 36.187412 -1.3240869
11.587725 36.21788 -1.3265299
11.713752 36.219334 -1.3279258
11.849338 36.227783 -1.3296708
11.985053 36.256798 -1.3321137
12.108417 36.247402 -1.3331608
12.235016 36.247055 -1.3345567
12.368189 36.265194 -1.3366507
12.498338 36.273399 -1.3383956
12.625394 36.271706 -1.3397917
12.762491 36.297855 -1.3422346
12.896533 36.314091 -1.3443286
13.020675 36.301613 -1.3453755
13.1551 36.316902 -1.3474696
13.286295 36.322323 -1.3492146
13.428046 36.355396 -1.3520064
13.549176 36.33176 -1.3527044
13.694968 36.373184 -1.3558455
13.961814 36.367954 -1.3589864
14.091312 36.382286 -1.3610804
14.233734 36.391197 -1.3631742
14.366341 36.39278 -1.3649193
14.502815 36.403164 -1.3670132
14.623454 36.35487 -1.3670132
14.787621 36.45023 -1.3722482
