# .PCD v0.7 - Point Cloud Data file format
VERSION 0.7
FIELDS x y z
SIZE 4 4 4
TYPE F F F
COUNT 1 1 1
WIDTH 91
HEIGHT 1
VIEWPOINT 0 0 0 1 0 0 0
POINTS 91
DATA ascii
17.526827 34.760212 0.22398908
17.518185 34.473175 0.22249159
17.371206 33.91951 0.21926625
17.450186 33.81144 0.21892068
17.583994 33.809689 0.21926625
17.801493 33.966869 0.22064854
18.085014 33.986774 0.22151248
18.144455 33.841656 0.22093654
18.127136 33.555717 0.21943903
18.160774 33.366852 0.21857512
18.270329 33.318394 0.2186327
17.404095 34.97937 0.0068120197
17.42135 34.724819 0.0067736222
17.467186 34.544979 0.0067491876
17.530222 34.400837 0.0067317346
17.533144 34.140995 0.0066915923
17.612736 34.032455 0.00668112
17.780998 34.080254 0.0067020636
17.372721 34.893978 -0.18349227
17.474264 34.552132 -0.18226711
17.541868 34.416878 -0.18184301
17.636192 34.334911 -0.18170165
17.734774 34.261581 -0.18160741
17.883942 34.285488 -0.1820315
17.336987 34.876068 -0.40066391
17.374775 34.678402 -0.39901638
17.447561 34.552242 -0.39819258
17.537891 34.461605 -0.39778069
17.636936 34.38855 -0.39757478
17.749472 34.341858 -0.39767772
17.912712 34.392342 -0.39891338
17.096329 33.47699 0.87179738
17.164835 33.351994 0.86994058
17.246513 33.253532 0.86878008
17.356693 33.196159 0.86878008
16.898169 33.660587 0.66330063
16.990286 33.580574 0.66277188
17.118406 33.571568 0.66365319
17.214663 33.499832 0.66330063
17.324415 33.454468 0.66347694
17.484938 33.506245 0.66559219
17.406698 34.985809 0.46332517
17.462734 34.823689 0.46190101
17.150053 33.670883 0.44801551
17.260311 33.625736 0.44813415
17.384241 33.606869 0.44860891
17.535982 33.640743 0.44979566
17.254745 34.716541 -1.562266
17.356333 34.632339 -1.5610569
17.474068 34.595474 -1.5618629
17.60985 34.593838 -1.5642812
17.723 34.547241 -1.5646844
17.872728 34.571281 -1.5683119
17.147617 34.936646 -1.8062439
17.168703 34.703529 -1.796962
17.304382 34.703064 -1.7997466
17.428341 34.663338 -1.8006748
17.555208 34.644062 -1.8025312
17.677582 34.615429 -1.8039235
17.854818 34.692951 -1.810885
16.990271 34.978561 -2.0358686
17.083149 34.599491 -2.0201678
17.196207 34.5546 -2.0206914
17.36738 34.625362 -2.0280182
17.498598 34.615192 -2.0306351
17.638988 34.622337 -2.0342987
17.811529 34.691124 -2.0416255
17.379494 34.906414 -0.67994577
17.491724 34.5704 -0.67558265
17.573011 34.461823 -0.67453545
17.676617 34.397556 -0.67436099
17.798378 34.368492 -0.6748845
17.943254 34.383331 -0.67628074
18.130287 34.477234 -0.67924762
17.298904 34.874767 -0.90289074
17.533258 34.511024 -0.89778447
17.655254 34.482468 -0.89848077
17.74976 34.400173 -0.89778447
17.899244 34.424076 -0.89987344
17.249983 34.937508 -1.114453
17.372112 34.619907 -1.1078703
17.476273 34.556244 -1.1075842
17.584763 34.501163 -1.1075842
17.706762 34.472424 -1.1084428
17.847136 34.478767 -1.1104462
17.200018 34.875122 -1.3565434
17.224945 34.650894 -1.3499125
17.347147 34.623413 -1.3509595
17.45583 34.568748 -1.3509595
17.582495 34.549358 -1.3523555
17.709192 34.529522 -1.3537515
