# .PCD v0.7 - Point Cloud Data file format
VERSION 0.7
FIELDS x y z
SIZE 4 4 4
TYPE F F F
COUNT 1 1 1
WIDTH 73
HEIGHT 1
VIEWPOINT 0 0 0 1 0 0 0
POINTS 73
DATA ascii
8.356966 -17.893969 0.11352082
8.2081881 -17.720541 0.11225373
8.1984243 -17.846182 0.11288728
8.1879511 -17.971935 0.11352082
7.9254575 -17.541983 0.11064105
7.7912493 -17.984083 0.11265689
7.74261 -18.026846 0.11277208
7.74474 -18.189074 0.11363602
7.6875591 -18.213314 0.11363602
7.5530581 -18.052896 0.1124841
7.5346384 -18.168896 0.11306006
7.4889345 -18.220222 0.11323285
7.4429822 -18.271439 0.11340563
7.1371474 -17.995613 0.1112746
8.2517643 -17.469053 0.0033649944
8.2584085 -17.918386 0.0034365531
7.8145885 -18.290472 0.0034644785
7.710278 -18.204437 0.0034435345
7.5872259 -18.071831 0.0034138639
7.5726867 -18.19713 0.0034330625
7.5040393 -18.193098 0.0034278266
7.461987 -18.253609 0.003434808
7.3745584 -18.202818 0.0034208454
8.5481224 -17.837225 -0.093018427
8.4017668 -17.81822 -0.09264145
8.2938538 -17.87973 -0.092688575
8.2919636 -18.023802 -0.093301155
7.5716028 -18.229839 -0.092829935
7.4838481 -18.179558 -0.092452966
7.582408 -17.782179 0.56582445
7.4719849 -17.677031 0.56172001
7.4202795 -17.709637 0.56201321
7.4413352 -17.917461 0.56787664
7.3278975 -17.802118 0.56347907
8.2272644 -17.176048 0.44123721
8.168972 -17.192781 0.44100511
8.0274773 -17.457563 0.44518307
8.0555725 -17.66461 0.4498252
7.9959173 -17.680721 0.44959307
7.9526105 -17.733118 0.45028943
7.5458674 -17.551432 0.44262984
7.510294 -17.621033 0.44379038
7.5249538 -17.810295 0.44796833
7.4226103 -17.723198 0.44518307
8.3823748 -17.359043 0.33914179
8.1680098 -17.051636 0.33261982
8.1315632 -17.113337 0.33332491
8.1033316 -17.193066 0.3343825
8.2778835 -17.707571 0.34390107
8.1297026 -17.53392 0.34002313
8.1121664 -17.641134 0.34160954
8.0650015 -17.684727 0.3419621
8.0753117 -17.855743 0.34478238
7.9373631 -17.698557 0.34125701
8.0848198 -18.180214 0.35007045
7.7130737 -17.491913 0.33632147
7.637897 -17.612089 0.33773163
7.5021248 -18.071569 0.34425357
7.3041744 -18.238672 0.34566373
8.1160841 -17.376259 0.22715275
8.0431776 -17.498207 0.22810219
8.1829824 -17.951073 0.23368013
7.9701223 -17.630411 0.22917031
8.1436119 -18.166395 0.23581636
7.8957224 -17.762386 0.23023842
7.8197298 -17.74135 0.22964504
7.7835889 -17.964478 0.23189993
7.6955619 -17.915333 0.2309505
7.6744766 -18.02223 0.23201862
7.5225172 -17.977839 0.23083182
7.5157676 -18.121471 0.23237467
7.0993023 -18.063206 0.22988237
7.0461459 -18.094738 0.23000106
