# .PCD v0.7 - Point Cloud Data file format
VERSION 0.7
FIELDS x y z
SIZE 4 4 4
TYPE F F F
COUNT 1 1 1
WIDTH 59
HEIGHT 1
VIEWPOINT 0 0 0 1 0 0 0
POINTS 59
DATA ascii
-30.894926 5.7149701 0.18073483
-30.730726 5.8845487 0.17998609
-30.712088 5.9810591 0.17998609
-30.712763 6.0813994 0.18010128
-30.703312 6.1798239 0.18015887
-30.820908 6.304286 0.18096521
-30.740446 5.8381796 0.0054541538
-30.721954 5.934721 0.0054541538
-30.714022 6.027781 0.0054558991
-30.703671 6.1315498 0.0054576444
-30.734346 6.232564 0.0054663708
-30.747559 5.8524909 -0.14730275
-30.709383 5.94526 -0.1472085
-30.700367 6.0436349 -0.14725561
-30.700838 6.1439829 -0.14734985
-30.740181 6.2523599 -0.1476326
-30.717157 5.8430262 -0.32158145
-30.688831 5.9376011 -0.32147849
-30.699461 6.0397754 -0.32178739
-30.719553 6.1440458 -0.32219929
-30.729498 6.2465005 -0.32250819
-30.900673 5.4987292 0.91939139
-30.765217 5.5744109 0.91587335
-30.757383 5.6728506 0.91616654
-30.680462 5.7583923 0.91440743
-30.613127 5.8453889 0.91294163
-30.584801 5.9396262 0.91264844
-30.634634 6.0492282 0.91470063
-30.693884 6.1611595 0.91704601
-30.696203 5.7576709 0.72417676
-30.599401 5.8390951 0.7223199
-30.580908 5.9351931 0.7223199
-30.641632 6.0413671 0.72417676
-30.739056 6.1665359 0.72696209
-30.662071 5.7420516 0.5492546
-30.653704 5.840219 0.54943085
-30.635204 5.9364958 0.54943085
-30.665451 6.0423727 0.55031222
-30.705137 6.1504712 0.55136979
-30.799927 5.6695313 0.3712298
-30.616364 5.8348351 0.36944959
-30.6077 5.9328909 0.36956829
-30.60853 6.0328932 0.36980563
-30.648251 6.1408157 0.37051773
-30.726786 6.2570438 0.37170452
-30.77722 5.9380035 -0.54643482
-30.728979 6.0288901 -0.54591125
-30.739304 6.1312647 -0.54643482
-30.74929 6.2337551 -0.54695845
-30.768726 6.3383927 -0.54765648
-30.713749 6.0889659 -0.7260263
-30.69339 6.1907763 -0.7260263
-30.723858 6.291851 -0.72718686
-30.772455 6.4025888 -0.72881156
-30.717579 6.0469604 -0.89522564
-30.698429 6.1434364 -0.89522564
-30.669184 6.2378511 -0.89493942
-30.698381 6.344285 -0.89637047
-30.736992 6.4530253 -0.89808762
