# .PCD v0.7 - Point Cloud Data file format
VERSION 0.7
FIELDS x y z
SIZE 4 4 4
TYPE F F F
COUNT 1 1 1
WIDTH 57
HEIGHT 1
VIEWPOINT 0 0 0 1 0 0 0
POINTS 57
DATA ascii
-21.123131 -18.225643 0.16046119
-21.203058 -18.17872 0.16063398
-21.229618 -18.086077 0.16040359
-21.286335 -18.019289 0.16040359
-21.381094 -17.984524 0.16069157
-21.087112 -18.23798 0.0048589967
-21.15189 -18.178156 0.0048607416
-21.201288 -18.105125 0.0048589967
-21.262535 -18.048613 0.0048607416
-21.326778 -17.988171 0.0048624869
-21.085266 -18.209066 -0.13109285
-21.157543 -18.155762 -0.13118708
-21.19165 -18.069736 -0.13104571
-21.263571 -18.016003 -0.13113996
-21.343018 -17.968428 -0.13128132
-21.065422 -18.183867 -0.2861591
-21.104101 -18.108265 -0.28595313
-21.176104 -18.05485 -0.2861591
-21.263247 -18.01408 -0.286571
-21.342686 -17.966507 -0.2868799
-21.261898 -18.475368 0.82498962
-21.19235 -18.188864 0.81795347
-21.25699 -18.128687 0.81824666
-21.283342 -18.035959 0.81707394
-21.155584 -18.498217 0.65152699
-21.16206 -18.154795 0.6464206
-21.211388 -18.081734 0.64618856
-21.249689 -18.005793 0.6457243
-21.098625 -18.446718 0.49337727
-21.153561 -18.261524 0.49196711
-21.172882 -18.162428 0.49108577
-21.199396 -18.069881 0.4903807
-21.263693 -18.009651 0.49055696
-21.101633 -18.20237 0.33028534
-21.140362 -18.126667 0.33004797
-21.18198 -18.047192 0.32981062
-21.238571 -17.98056 0.32981062
-21.317917 -17.933054 0.33016667
-21.115383 -18.167574 -0.48552594
-21.172356 -18.101145 -0.48552594
-21.236734 -18.041019 -0.48570046
-21.285671 -17.96776 -0.48552594
-21.410944 -17.958645 -0.48709667
-21.143064 -18.100147 -0.64525354
-21.207439 -18.040112 -0.64548564
-21.27614 -17.990019 -0.6459499
-21.355515 -17.942381 -0.6466462
-21.058046 -18.070473 -0.79333937
-21.145142 -18.030167 -0.7944842
-21.21693 -17.976572 -0.79505652
-21.288599 -17.922701 -0.79562896
-21.375467 -17.88139 -0.79677373
-21.046816 -18.059212 -0.96706504
-21.126265 -18.012453 -0.96811205
-21.198004 -17.95891 -0.96881002
-21.261961 -17.898663 -0.96915895
-21.348757 -17.857418 -0.97055501
