# .PCD v0.7 - Point Cloud Data file format
VERSION 0.7
FIELDS x y z
SIZE 4 4 4
TYPE F F F
COUNT 1 1 1
WIDTH 248
HEIGHT 1
VIEWPOINT 0 0 0 1 0 0 0
POINTS 248
DATA ascii
11.27364 -25.574562 0.16074918
11.285392 -25.82058 0.16207387
13.608724 -25.619883 0.0050562187
13.513988 -25.624767 0.0050492375
13.433418 -25.667097 0.0050492375
13.352716 -25.709171 0.0050492375
13.299374 -25.804325 0.0050597093
13.195471 -25.801464 0.0050509823
13.114348 -25.842791 0.0050509823
13.019603 -25.857071 0.0050457469
12.86679 -25.754719 0.0050178217
11.765522 -25.738264 0.0049323002
11.680475 -25.765993 0.0049305549
11.583068 -25.766077 0.0049235737
11.489848 -25.77494 0.0049183378
11.392643 -25.774324 0.0049113561
11.295555 -25.773354 0.0049043749
11.207073 -25.779243 0.0048991391
11.118113 -25.795958 0.0048956485
10.380632 -25.853779 0.0048555057
10.289082 -25.847301 0.0048485245
10.199643 -25.871975 0.0048467792
13.580074 -25.612087 -0.1364176
13.494888 -25.645773 -0.13637048
13.409625 -25.67918 -0.13632336
13.34718 -25.745487 -0.13646473
13.275449 -25.816286 -0.1366061
13.185154 -25.82884 -0.13646473
13.112982 -25.887978 -0.13655896
13.004648 -25.875435 -0.13627625
12.860826 -25.790873 -0.13561653
12.801908 -25.875965 -0.13585214
12.729363 -25.93401 -0.13594638
12.500928 -25.878408 -0.13523956
12.022269 -25.707346 -0.13354318
11.648822 -25.747057 -0.13297771
11.563788 -25.774399 -0.13293059
11.462439 -25.764917 -0.13269499
11.369332 -25.773352 -0.13255361
11.280293 -25.790617 -0.13245937
11.191781 -25.796453 -0.132318
11.098832 -25.803926 -0.13217664
11.009869 -25.820269 -0.13208239
10.917023 -25.827097 -0.13194104
10.812004 -25.817036 -0.13170542
10.516081 -25.777056 -0.1309986
10.435047 -25.809965 -0.1309986
10.353911 -25.842621 -0.1309986
10.265295 -25.856432 -0.13090435
10.173034 -25.860636 -0.13076299
10.106263 -25.929737 -0.13095148
10.103988 -26.166594 -0.13198815
13.587439 -25.629078 -0.29830977
13.483585 -25.627388 -0.29779494
13.393755 -25.65189 -0.29758897
13.336094 -25.738237 -0.29810384
13.273453 -25.815582 -0.29851574
13.183199 -25.839338 -0.29830977
13.097443 -25.871704 -0.29820681
13.00264 -25.885916 -0.29789791
12.872208 -25.828182 -0.29676521
12.795433 -25.877459 -0.29686818
12.709671 -25.90855 -0.29676521
12.593224 -25.876413 -0.29594144
12.503177 -25.897837 -0.29573548
12.417437 -25.927969 -0.29563251
12.126461 -25.734091 -0.29254335
12.024393 -25.726761 -0.29202849
11.935392 -25.735107 -0.29171959
11.841953 -25.74522 -0.29141065
11.752717 -25.764099 -0.29120472
11.651121 -25.755339 -0.29068986
11.549696 -25.746193 -0.29017502
11.456132 -25.766077 -0.28996906
11.371565 -25.781654 -0.28976312
11.278499 -25.789762 -0.28945419
11.193446 -25.815893 -0.28935122
11.088605 -25.795807 -0.28873339
10.995755 -25.802917 -0.28842449
10.899081 -25.800486 -0.28801259
10.810251 -25.816149 -0.28780663
10.7176 -25.822275 -0.28749773
10.628819 -25.837322 -0.2872918
10.521913 -25.794668 -0.286468
10.421338 -25.79233 -0.2860561
10.3522 -25.841703 -0.28626207
10.256214 -25.83692 -0.2858502
10.167678 -25.850401 -0.28564423
10.108191 -25.93812 -0.28626207
10.113049 -26.193645 -0.28873339
12.808233 -25.5564 -1.1515465
12.78574 -25.712809 -1.1567862
12.704897 -25.75285 -1.1567862
12.601958 -25.747768 -1.154771
12.503545 -25.75128 -1.1531587
12.400894 -25.745428 -1.1511434
12.307023 -25.757214 -1.1499342
12.217482 -25.777697 -1.1491281
12.119427 -25.779783 -1.1475158
12.025704 -25.790565 -1.1463066
11.932034 -25.801014 -1.1450975
11.16539 -25.815647 -1.1330056
11.084232 -25.850595 -1.1330056
10.608517 -25.855133 -1.1257505
10.519707 -25.869823 -1.1249444
10.40849 -25.828609 -1.12172
10.338417 -25.889015 -1.1229291
10.169127 -25.923782 -1.12172
10.058664 -25.881102 -1.1184955
9.9773064 -25.912575 -1.1184955
12.835067 -25.546028 -1.3263735
12.768119 -25.613043 -1.3277656
12.669874 -25.617214 -1.3259093
12.567328 -25.612053 -1.3235888
12.473686 -25.624466 -1.3221966
12.3714 -25.618549 -1.3198761
12.277907 -25.630264 -1.3184838
10.443042 -25.839399 -1.2929587
10.372957 -25.8999 -1.2943511
10.285005 -25.90271 -1.2929587
13.346877 -25.673048 -0.50437456
13.203537 -25.791998 -0.50507259
13.14508 -25.866711 -0.50577074
13.054727 -25.901232 -0.50559622
12.950968 -25.886208 -0.50454909
12.842896 -25.873035 -0.50350189
12.757132 -25.904287 -0.50332743
12.662516 -25.917288 -0.5028038
12.541769 -25.875971 -0.5012331
12.469085 -25.933266 -0.50158215
12.374633 -25.945238 -0.50105858
12.088142 -25.760012 -0.4959974
11.994493 -25.770668 -0.4954738
11.905088 -25.790068 -0.49512476
11.81568 -25.80916 -0.49477568
11.709728 -25.791534 -0.49372855
11.616325 -25.800846 -0.49320501
11.5189 -25.800695 -0.49250689
11.434196 -25.816477 -0.49215785
11.332925 -25.806501 -0.49128523
11.243809 -25.823645 -0.49093619
11.150732 -25.831303 -0.49041259
11.057719 -25.838634 -0.48988906
10.96477 -25.845634 -0.48936546
10.864131 -25.833874 -0.48849285
10.782918 -25.867878 -0.48849285
10.682499 -25.855425 -0.4876202
10.597428 -25.879606 -0.48744571
10.319721 -25.894749 -0.48587501
10.228142 -25.88806 -0.48517689
10.132175 -25.882826 -0.4844788
10.061664 -25.942492 -0.48500237
10.040134 -26.143711 -0.4881438
13.160537 -25.855431 -0.67264205
13.056706 -25.852032 -0.67148149
12.966467 -25.875048 -0.67101729
12.880662 -25.906704 -0.67078519
12.759401 -25.866352 -0.66869622
12.669288 -25.888348 -0.66823202
12.583528 -25.919029 -0.66799986
12.489023 -25.931414 -0.66730362
12.390254 -25.934439 -0.66637516
12.231644 -25.810625 -0.66219723
11.924896 -25.788651 -0.65871567
11.82298 -25.780552 -0.65755516
11.725371 -25.781166 -0.6566267
11.636098 -25.79965 -0.6561625
11.534577 -25.790449 -0.655002
11.449444 -25.817421 -0.6547699
11.348156 -25.807507 -0.6536094
11.255034 -25.815538 -0.65291303
11.166483 -25.821291 -0.65221673
11.065609 -25.810303 -0.65105617
10.976646 -25.826538 -0.65059197
10.887691 -25.84247 -0.65012777
10.794892 -25.848873 -0.64943147
10.702159 -25.854946 -0.64873511
10.6057 -25.851446 -0.6478067
10.498071 -25.819811 -0.646182
10.32451 -25.857409 -0.64548564
10.247746 -25.887928 -0.64548564
10.147245 -25.884537 -0.64455724
10.074019 -25.923851 -0.64478934
10.021267 -26.030006 -0.6466462
13.080058 -25.633846 -0.82281774
12.994912 -25.654707 -0.8222453
12.896297 -25.659678 -0.82110047
12.802242 -25.673229 -0.82024193
12.703795 -25.677483 -0.8190971
12.609854 -25.690348 -0.81823856
12.51158 -25.693886 -0.81709373
12.404715 -25.67906 -0.81537658
12.311022 -25.690859 -0.81451797
12.21738 -25.702324 -0.81365943
12.123786 -25.713455 -0.81280082
12.042945 -25.751415 -0.81280082
11.945163 -25.75285 -0.811656
11.851668 -25.763006 -0.81079745
11.754079 -25.763733 -0.80965263
11.660723 -25.773211 -0.80879408
11.575608 -25.800596 -0.80850786
11.478246 -25.800301 -0.80736303
11.376966 -25.790504 -0.80593204
11.287877 -25.807802 -0.80535966
11.195339 -25.804499 -0.80421484
11.10237 -25.811996 -0.80335629
11.013385 -25.828358 -0.80278391
10.912735 -25.816792 -0.80135292
10.823851 -25.832508 -0.80078053
10.731142 -25.838688 -0.79992187
10.64611 -25.863029 -0.79963571
10.549706 -25.859327 -0.79849094
10.419714 -25.771866 -0.79477036
10.357284 -25.850868 -0.79620135
10.169044 -25.850319 -0.79419798
10.091412 -25.891453 -0.7944842
10.006421 -25.913702 -0.79419798
9.9749527 -26.07572 -0.79820472
13.112368 -25.700308 -1.0061525
12.999978 -25.678953 -1.0037096
12.905787 -25.692873 -1.0026625
12.802727 -25.688564 -1.0009176
12.708676 -25.70178 -0.99987054
12.61027 -25.705685 -0.99847454
12.516337 -25.718212 -0.99742764
12.422449 -25.730404 -0.99638063
12.328609 -25.74226 -0.99533361
12.226242 -25.735725 -0.99358863
11.941427 -25.74798 -0.98974967
11.750392 -25.758848 -0.98730671
11.661175 -25.777424 -0.98660874
11.567869 -25.786573 -0.98556179
11.458381 -25.758865 -0.98311883
11.369337 -25.776445 -0.9824208
11.284299 -25.802877 -0.98207182
11.187285 -25.801521 -0.98067582
11.082502 -25.781446 -0.97858185
10.993621 -25.797747 -0.97788388
10.908633 -25.82295 -0.97753489
10.823596 -25.847876 -0.9771859
10.727021 -25.844826 -0.9757899
10.626774 -25.832182 -0.97404492
10.53499 -25.82658 -0.97264892
10.408124 -25.759439 -0.96881002
10.352339 -25.868046 -0.97160202
10.165745 -25.845312 -0.96846104
10.077245 -25.858496 -0.96776301
9.9995565 -25.899351 -0.96811205
