# .PCD v0.7 - Point Cloud Data file format
VERSION 0.7
FIELDS x y z
SIZE 4 4 4
TYPE F F F
COUNT 1 1 1
WIDTH 266
HEIGHT 1
VIEWPOINT 0 0 0 1 0 0 0
POINTS 266
DATA ascii
-19.854202 22.48901 0.17255627
-19.724092 22.483627 0.1720379
-19.627069 22.515337 0.17180753
-19.516949 22.53154 0.17146194
-19.380817 22.516968 0.170886
-19.283981 22.547348 0.17065561
-19.167709 22.554491 0.17025244
-19.064495 22.576401 0.16996446
-18.948467 22.582569 0.16956128
-18.826191 22.580547 0.16910052
-18.716871 22.593388 0.16875495
-18.461462 22.428211 0.16708469
-18.346579 22.431925 0.16668151
-18.354084 22.593521 0.16743027
-18.264164 22.627733 0.16725747
-18.167959 22.653799 0.16702709
-18.046831 22.648211 0.16656633
-17.938341 22.657757 0.16622075
-17.82378 22.658993 0.16581757
-17.721714 22.675486 0.16552961
-17.601311 22.667873 0.16506885
-17.505575 22.691389 0.16483845
-17.39769 22.698662 0.16449289
-17.285973 22.708498 0.16414732
-17.178347 22.71484 0.16380173
-17.082867 22.736723 0.16357136
-16.99939 22.774252 0.16345616
-19.757452 22.295353 0.0051923543
-19.647652 22.312286 0.0051818821
-19.537949 22.328747 0.0051714103
-19.428329 22.344746 0.0051609385
-19.299196 22.337568 0.0051452303
-19.189837 22.35257 0.0051347585
-19.067598 22.351885 0.0051207957
-18.964947 22.373539 0.0051120692
-18.855911 22.387117 0.0051015974
-18.746975 22.400238 0.0050911251
-18.62145 22.400763 0.0050771628
-18.395649 22.263203 0.0050335294
-18.325613 22.320887 0.0050335294
-18.289415 22.42803 0.0050440012
-18.193684 22.454298 0.00503702
-18.085421 22.464613 0.0050265482
-17.977278 22.474464 0.0050160759
-17.875467 22.491692 0.0050073494
-17.786129 22.524193 0.0050021135
-17.653545 22.501289 0.0049846601
-17.558178 22.525089 0.0049776784
-17.444458 22.524799 0.0049654613
-17.339188 22.542891 0.0049567348
-17.243988 22.565472 0.0049497532
-17.154873 22.59564 0.0049445177
-17.029598 22.577576 0.0049288096
-16.88662 22.534937 0.0049078655
-19.875376 22.297138 -0.14056432
-19.745556 22.292097 -0.14014022
-19.287416 22.334106 -0.13886793
-19.165066 22.333872 -0.13849096
-19.042902 22.333097 -0.13811399
-18.946795 22.362288 -0.13792549
-18.831366 22.368153 -0.13759564
-18.712185 22.376776 -0.13726579
-18.597065 22.381607 -0.13693595
-18.386602 22.270267 -0.13589926
-18.329233 22.34338 -0.1359935
-18.277899 22.42411 -0.13613488
-18.150726 22.411476 -0.13571078
-18.048889 22.42943 -0.13547517
-17.934624 22.431349 -0.13514532
-17.851629 22.471918 -0.13505107
-17.712795 22.441544 -0.13453273
-17.623697 22.473469 -0.13439137
-17.503839 22.465618 -0.13401438
-17.402576 22.480957 -0.13377878
-17.297457 22.498901 -0.13354318
-17.190269 22.505451 -0.13326044
-17.089262 22.519512 -0.13302483
-16.964252 22.501223 -0.13260074
-16.729534 22.327372 -0.13128132
-19.874258 22.282629 -0.30706239
-19.744474 22.277597 -0.30613565
-19.634748 22.294483 -0.30551782
-18.708941 22.3514 -0.29975137
-18.606668 22.371618 -0.29923654
-18.402552 22.268072 -0.29707411
-18.326164 22.318045 -0.29697114
-18.268595 22.391006 -0.29717708
-18.19187 22.440517 -0.29707411
-18.052296 22.411888 -0.29594144
-17.944321 22.421638 -0.29532361
-17.842678 22.438765 -0.29480875
-17.734915 22.447622 -0.29419091
-17.621094 22.448162 -0.29347011
-17.503531 22.451262 -0.29274932
-17.365572 22.419167 -0.29161662
-17.240185 22.402279 -0.29068986
-17.20615 22.504 -0.29130769
-16.651606 21.920835 -0.28306994
-16.576632 21.965059 -0.28296697
-16.567516 22.097042 -0.28399667
-16.736881 22.469803 -0.28811556
-19.417269 22.53536 0.87131101
-19.300863 22.543106 0.86925882
-19.171638 22.535124 0.86662024
-19.055571 22.541813 0.86456805
-18.946072 22.555651 0.86280894
-18.84309 22.576694 0.86134309
-18.721008 22.57424 0.8589977
-18.605494 22.578949 0.85694551
-18.407795 22.482628 0.85108203
-18.301598 22.50478 0.84961617
-18.262222 22.601034 0.85108203
-18.153576 22.611534 0.84932303
-18.057508 22.637205 0.84815031
-17.961464 22.662489 0.84697765
-17.840693 22.655993 0.84463221
-17.732468 22.664698 0.84287322
-17.624355 22.672953 0.8411141
-17.510263 22.672836 0.83906192
-17.402428 22.680164 0.83730292
-17.302887 22.705946 0.8361302
-17.183186 22.696449 0.83378482
-17.069731 22.694408 0.83173257
-16.992361 22.739918 0.83143944
-16.873163 22.728989 0.82909405
-15.666992 22.865156 0.81179678
-15.533203 22.823376 0.80857193
-15.42783 22.822378 0.80681288
-19.65131 22.497902 0.69261014
-19.508446 22.476479 0.69005692
-19.398558 22.492237 0.68866432
-19.295273 22.515112 0.68750376
-19.179066 22.522343 0.68587899
-19.063011 22.529062 0.68425423
-18.940664 22.52763 0.68239737
-18.837749 22.54866 0.6812368
-18.724564 22.564846 0.67984414
-18.568466 22.512337 0.67659467
-18.37966 22.434595 0.67241675
-18.340643 22.530993 0.67357725
-18.257198 22.572952 0.67311305
-18.154875 22.591238 0.67195249
-18.058863 22.616911 0.67102408
-17.925577 22.595221 0.66870302
-17.82975 22.620016 0.66777456
-17.727779 22.636564 0.666614
-17.625875 22.6527 0.66545349
-17.51182 22.652596 0.66382873
-17.40616 22.670897 0.66266817
-17.286339 22.661882 0.66081131
-17.178829 22.668272 0.6594187
-17.077457 22.682199 0.65825814
-16.988153 22.711721 0.65756184
-16.904789 22.748932 0.65709758
-16.797611 22.75367 0.65570498
-16.690565 22.757963 0.65431231
-16.577776 22.753725 0.65268755
-16.482759 22.773304 0.65175915
-16.186401 22.81349 0.64850956
-16.068569 22.798861 0.6466527
-15.968198 22.808281 0.6454922
-15.867926 22.817295 0.64433169
-15.779113 22.84236 0.64363533
-15.673337 22.84236 0.64224273
-15.545186 22.80888 0.63992161
-15.445431 22.81621 0.63876104
-19.650972 22.476171 0.52563453
-19.534363 22.484961 0.52440065
-19.430964 22.508371 0.52351928
-19.301569 22.501003 0.52193284
-19.185389 22.508261 0.52069896
-19.088734 22.537905 0.5199939
-18.972775 22.544207 0.51876003
-18.846611 22.545628 0.51734984
-18.743753 22.566263 0.51646852
-18.615488 22.555635 0.51488209
-18.411409 22.451639 0.51118046
-18.340782 22.509373 0.51118046
-18.27627 22.57465 0.51135671
-18.180189 22.600792 0.51065165
-18.084133 22.626551 0.50994658
-17.963219 22.620611 0.5085364
-17.867296 22.645531 0.50783134
-17.734383 22.622862 0.50606865
-17.632511 22.639019 0.50518733
-17.530704 22.654764 0.50430596
-17.431112 22.681063 0.5036009
-17.311237 22.672132 0.50219071
-17.203669 22.678612 0.50113314
-17.106211 22.689634 0.50025177
-17.002846 22.692278 0.49919415
-16.917566 22.743467 0.49901786
-16.822268 22.764334 0.4983128
-16.727001 22.784832 0.49760774
-16.619995 22.788795 0.49655011
-16.513121 22.792315 0.49549249
-16.412239 22.803501 0.49461114
-16.210745 22.824652 0.49284846
-16.11014 22.834618 0.49196711
-15.998162 22.827797 0.49073324
-15.897804 22.836914 0.48985186
-15.797554 22.845623 0.48897055
-15.69174 22.845692 0.48791295
-15.557916 22.804016 0.48597395
-15.221645 22.777727 0.4822723
-15.177659 22.867088 0.48315367
-19.661818 22.482889 0.35402125
-19.538626 22.484159 0.35307181
-19.426081 22.489052 0.35224104
-19.309759 22.496847 0.3514103
-19.189648 22.507484 0.35057953
-19.06068 22.498987 0.34951141
-18.964155 22.528151 0.34903672
-18.848387 22.533922 0.34820595
-18.726385 22.531492 0.34725651
-18.61731 22.543945 0.34654444
-18.400543 22.424503 0.34381482
-18.304733 22.451199 0.3433401
-18.278162 22.562986 0.34417084
-18.188385 22.596924 0.34381482
-18.067352 22.591473 0.34286538
-17.958977 22.601139 0.34215331
-17.863104 22.626053 0.34167856
-17.742577 22.619106 0.34072915
-17.640701 22.635298 0.34013575
-17.541065 22.662037 0.339661
-17.421034 22.653608 0.33871159
-17.307293 22.652601 0.33788082
-17.205824 22.667032 0.33728743
-15.591375 22.540836 0.32482606
-15.554447 22.639166 0.32553816
-15.455075 22.646614 0.32494473
-15.378241 22.686781 0.32482606
-15.306894 22.734978 0.32482606
-15.163155 22.674887 0.32328323
-15.047603 22.655764 0.32233381
-19.81115 22.361488 -0.52077979
-19.558319 22.357613 -0.51781291
-18.657835 22.442318 -0.50873762
-18.491703 22.38521 -0.50611979
-18.332453 22.335014 -0.50367641
-17.757668 22.349405 -0.4975681
-17.709475 22.578527 -0.50018597
-17.570835 22.54731 -0.49826619
-17.444807 22.53126 -0.49669546
-17.312963 22.506712 -0.49495023
-16.861803 22.071474 -0.48412976
-16.780289 22.10841 -0.48378068
-16.897411 22.408461 -0.48919094
-16.880899 22.533442 -0.49076164
-16.774197 22.538246 -0.4897145
-16.685472 22.566715 -0.48919094
-17.095201 21.595005 -0.63852251
-16.990191 21.601456 -0.63712984
-16.780552 21.613028 -0.63434458
-16.846912 21.839781 -0.63945091
-16.823046 21.959007 -0.64130777
-16.832695 22.115166 -0.64432514
-16.829473 22.255646 -0.6468783
-16.747458 22.292423 -0.64641404
-16.796949 22.505154 -0.65105617
-16.720205 22.549784 -0.65082407
-16.536617 22.44927 -0.64641404
-16.845755 21.620777 -0.78360868
-16.85729 21.776354 -0.78732926
-16.935034 22.019381 -0.79419798
