# .PCD v0.7 - Point Cloud Data file format
VERSION 0.7
FIELDS x y z
SIZE 4 4 4
TYPE F F F
COUNT 1 1 1
WIDTH 71
HEIGHT 1
VIEWPOINT 0 0 0 1 0 0 0
POINTS 71
DATA ascii
-38.38343 5.2361965 0.22289477
-38.337074 5.3526163 0.22272198
-38.299316 5.4768906 0.22260678
-38.311607 5.6015153 0.22277959
-37.208012 5.6793222 0.21655926
-38.336086 5.2942033 0.0067474428
-38.299461 5.4118114 0.0067439522
-38.282272 5.5321112 0.0067439522
-38.314167 5.6596498 0.0067526787
-37.178841 5.6114097 0.0065554562
-38.342369 5.3186579 -0.18221998
-38.295769 5.4348764 -0.18207863
-38.288403 5.5565906 -0.18212573
-38.231194 5.6709843 -0.18193726
-37.135513 5.6276903 -0.17680098
-38.49617 5.2131457 -0.39963418
-38.331036 5.3134389 -0.39808962
-38.274551 5.4282165 -0.39767772
-38.277103 5.5513005 -0.39788368
-38.239689 5.6685939 -0.39767772
-37.12429 5.6223359 -0.38624784
-38.678013 4.2688098 1.1401509
-38.624683 4.3857989 1.1389782
-38.570213 4.5092235 1.1378055
-38.486385 4.6220345 1.1357533
-38.431992 4.7380395 1.1345806
-38.347496 4.8499784 1.1325283
-38.282505 4.9640121 1.1310625
-38.237 5.0803056 1.130183
-38.162327 5.1856666 1.1284239
-37.898331 5.2711468 1.1210946
-37.574802 5.34657 1.1120063
-37.349144 5.4409151 1.1058496
-37.134129 5.5288186 1.0999862
-36.869522 5.6079063 1.0926569
-36.673923 5.696125 1.0873797
-36.488014 5.7847238 1.0823958
-38.553654 4.8655505 0.90127516
-38.198986 5.1869988 0.89407986
-37.75671 5.2478247 0.88409919
-37.532181 5.3368645 0.87922484
-37.327255 5.4274321 0.87481487
-37.112244 5.515286 0.87017268
-36.837749 5.5928521 0.86413789
-36.63229 5.6794572 0.85972786
-36.515518 5.7788954 0.85740674
-38.483551 4.9759259 0.68339539
-38.27319 5.1934185 0.68022257
-37.870457 5.2599745 0.67334807
-37.546875 5.3352976 0.66788369
-37.351826 5.4273467 0.66471082
-37.136795 5.515274 0.66118544
-36.852383 5.5914125 0.65642619
-36.646908 5.6780601 0.65307707
-36.500504 5.7728553 0.65078557
-38.305424 5.2008314 0.45834062
-38.249279 5.3156295 0.45786589
-38.222492 5.4343634 0.45774722
-38.215126 5.5558505 0.45786589
-38.246933 5.6832399 0.45845929
-37.121681 5.6351223 0.44516718
-38.549164 5.3136182 -0.67854953
-38.354073 5.4095941 -0.67540812
-38.345818 5.5381804 -0.67558265
-38.298557 5.6542382 -0.67505908
-38.26083 5.771554 -0.67471004
-37.165359 5.7259312 -0.65568691
-38.271175 5.6055174 -0.89708811
-38.263264 5.7271967 -0.89732027
-37.187653 5.6857605 -0.87248498
-38.275913 5.9752054 -0.89848077
