# .PCD v0.7 - Point Cloud Data file format
VERSION 0.7
FIELDS x y z
SIZE 4 4 4
TYPE F F F
COUNT 1 1 1
WIDTH 85
HEIGHT 1
VIEWPOINT 0 0 0 1 0 0 0
POINTS 85
DATA ascii
-3.8527465 9.0863504 0.056616426
-3.7994306 9.119607 0.056674022
-3.7745845 9.1407385 0.056731611
-3.8318534 9.0387716 -1.1036812
-3.7864873 9.0147734 -1.0991948
-3.7581491 9.0266237 -1.0991948
-3.7449117 9.0751381 -1.1036812
-3.8089156 9.0836763 0.0017121679
-3.7765214 9.0863647 0.0017104227
-3.7539868 9.1173296 0.0017139133
-3.7759879 9.0344305 0.38998422
-3.7514067 9.055481 0.39038378
-3.7267284 9.0764675 0.39078334
-3.7897496 9.037385 -0.045990877
-3.7690108 9.0677156 -0.046085116
-3.7328916 9.061018 -0.045990877
-3.8143401 9.0524693 0.56583506
-3.785881 9.0644083 0.56583506
-3.7573869 9.0762568 0.56583506
-3.7364423 9.1064844 0.56698978
-3.8204153 9.0128098 -0.10039767
-3.7675505 9.0458689 -0.10050064
-3.7467332 9.0761509 -0.10070658
-3.8091083 9.0160332 0.78944969
-3.7485681 9.0305796 0.78864247
-3.7163935 9.0330915 0.7878353
-3.7105436 9.1001139 0.79267848
-3.8520486 9.0713825 0.28789616
-3.7872674 9.0769615 0.28730983
-3.7625587 9.0980482 0.28760299
-3.7567363 9.1653042 0.28936204
-3.8530366 9.0513134 0.22746579
-3.7752199 9.1056938 0.22792999
-3.7488034 9.1274099 0.22816211
-3.8030293 9.0736599 0.17274374
-3.7783401 9.0947952 0.17292
-3.749748 9.1066208 0.17292
-3.8328447 9.050787 0.11618733
-3.7720654 9.0654564 0.11606865
-3.7435679 9.077261 0.11606865
-3.8032138 9.0662203 -0.39500019
-3.7576115 9.1176453 -0.39620936
-3.736517 9.1478996 -0.39701548
-3.8254383 9.0652609 -0.45527369
-3.7684042 9.089118 -0.45527369
-3.7458365 9.1200438 -0.45620191
-3.7940843 9.0310307 -1.3572366
-3.7618802 9.0337648 -1.3558588
-3.7372661 9.0546913 -1.3572366
-3.8145206 9.0125532 -0.51079893
-3.7654858 9.0547838 -0.51184565
-3.7370195 9.0665693 -0.51184565
-3.7966599 9.0412655 -0.92320144
-3.7682383 9.0531483 -0.92320144
-3.7359757 9.0557423 -0.92226046
-3.7226007 9.1042852 -0.92602479
-3.8015602 9.0253601 -0.56410247
-3.7770302 9.0464735 -0.56467986
-3.7524025 9.067522 -0.56525725
-3.7276821 9.0885038 -0.56583464
-3.7745583 9.0867758 -0.62686634
-3.7497985 9.1078148 -0.62750471
-3.8473265 9.1089087 -0.17190619
-3.7785079 9.1052036 -0.17138262
-3.7575004 9.135519 -0.17173168
-3.8209403 8.9976196 -0.69271898
-3.7588534 9.0885315 -0.69697744
-3.8151274 9.0673599 -0.2274635
-3.7789214 9.0608482 -0.22699927
-3.7580805 9.0911512 -0.2274635
-3.7354925 9.1220655 -0.2279277
-3.8040485 8.978899 -0.74385422
-3.7781985 9.0762691 -0.74996388
-3.7572696 9.1065302 -0.75149137
-3.7883029 9.0337706 -0.27932873
-3.7428851 9.085124 -0.28018731
-3.7256541 9.1246023 -0.28104591
-3.795507 8.9889126 -0.792117
-3.786463 9.0467739 -0.79617912
-3.7656524 9.0770407 -0.79780394
-3.7409041 9.0980463 -0.79861641
-3.7861705 9.01052 -0.33992109
-3.7463334 8.9946861 -0.3388741
-3.7370982 9.0526114 -0.34061909
-3.7124202 9.0735579 -0.34096807
