# .PCD v0.7 - Point Cloud Data file format
VERSION 0.7
FIELDS x y z
SIZE 4 4 4
TYPE F F F
COUNT 1 1 1
WIDTH 310
HEIGHT 1
VIEWPOINT 0 0 0 1 0 0 0
POINTS 310
DATA ascii
5.4100475 -9.6801729 -1.2472495
5.3347535 -9.6878538 -1.2438847
5.2995305 -9.6958427 -1.242763
5.2690439 -9.7124443 -1.242763
5.233799 -9.7201977 -1.2416414
5.2032361 -9.7365923 -1.2416414
5.1679707 -9.7441092 -1.2405198
5.1373329 -9.7602968 -1.2405198
5.1020494 -9.7675781 -1.2393981
5.0667701 -9.7747345 -1.2382765
5.0360365 -9.7906036 -1.2382765
5.0007405 -9.7975235 -1.2371548
4.974422 -9.822052 -1.2382765
4.9435406 -9.8376312 -1.2382765
4.9214683 -9.870903 -1.2405198
4.9036379 -9.913044 -1.2438847
4.8899636 -9.9640913 -1.2483711
4.8890519 -10.04196 -1.2562225
4.8747482 -10.09307 -1.260709
4.8558826 -10.135226 -1.2640738
4.8368001 -10.177363 -1.2674389
5.6714787 -9.4950657 0.0019233527
5.6314163 -9.495636 0.0019198621
5.5964818 -9.5046644 0.0019181167
5.5665941 -9.5221987 0.0019181167
5.5316305 -9.5309916 0.0019163714
5.4966669 -9.5396585 0.001914626
5.4716368 -9.5655594 0.0019163714
5.4415588 -9.5827026 0.0019163714
5.4163389 -9.6084604 0.0019181167
5.3958969 -9.6428804 0.0019216075
5.3752904 -9.6772671 0.001925098
5.3593512 -9.7203751 0.001930334
5.3497014 -9.7713165 0.0019373153
5.3380818 -9.8232174 0.0019442966
5.3309379 -9.8839417 0.0019530233
5.8358088 -9.5123415 -0.052399438
5.7902927 -9.5050058 -0.052258074
5.7448802 -9.4974775 -0.052116707
5.7047205 -9.498333 -0.052022465
5.6594911 -9.4904394 -0.051881101
5.6194611 -9.4909611 -0.051786855
5.5845504 -9.4999466 -0.051739734
5.554678 -9.5174437 -0.051739734
5.5163879 -9.5165787 -0.051645491
5.4814773 -9.5251942 -0.051598366
5.4564853 -9.5510511 -0.051645491
5.4264526 -9.5681458 -0.051645491
5.4012709 -9.5938606 -0.051692609
5.3743024 -9.62045 -0.051739734
5.3602829 -9.66259 -0.051881101
5.3395452 -9.6969023 -0.051975343
5.3282332 -9.7487316 -0.052163828
5.3118811 -9.7917938 -0.052305192
5.2953115 -9.8348503 -0.052446563
5.8280187 -9.4927311 -0.11429888
5.7981677 -9.510993 -0.11429888
5.7527375 -9.5034914 -0.11398996
5.7125592 -9.5043716 -0.11378402
5.6724315 -9.5050926 -0.11357807
5.6272631 -9.4970512 -0.11326917
5.5872669 -9.4974403 -0.11306322
5.5473247 -9.497673 -0.11285727
5.5174599 -9.5150528 -0.11285727
5.477571 -9.5150023 -0.11265133
5.4476514 -9.5321636 -0.11265133
5.4176784 -9.5492306 -0.11265133
5.3974576 -9.5836344 -0.11285727
5.3721981 -9.6092739 -0.11296024
5.3468308 -9.6348495 -0.11306322
5.3358173 -9.6866426 -0.1134751
5.3101525 -9.7121344 -0.11357807
5.29391 -9.7551413 -0.11388699
5.2916627 -9.8245611 -0.11450483
5.289031 -9.8940611 -0.11512265
5.651258 -9.6471443 -0.44941348
5.5302467 -9.6479807 -0.44699511
5.4801254 -9.630579 -0.44538286
5.4350872 -9.6216545 -0.44417366
5.3950505 -9.6212568 -0.44336757
5.3696618 -9.6468868 -0.44377062
5.3344922 -9.6549654 -0.44336757
5.3106322 -9.6795082 -0.44377062
5.275414 -9.6873713 -0.44336757
5.2544646 -9.7214718 -0.44417366
5.2286267 -9.7467337 -0.44457674
5.2026806 -9.7719297 -0.44497982
5.1813002 -9.8058901 -0.44578591
5.1597581 -9.8398132 -0.44659203
5.1426702 -9.8825579 -0.44780123
5.1299539 -9.9341679 -0.44941348
5.1124024 -9.9769058 -0.45062265
5.0963826 -10.018742 -0.45183185
5.6480155 -9.680728 -0.5188542
5.5522118 -9.6554136 -0.51560563
5.5020356 -9.6381111 -0.51374924
5.4470968 -9.6118994 -0.51142877
5.4070749 -9.6115541 -0.51050061
5.3719807 -9.6197729 -0.51003653
5.341733 -9.6366014 -0.51003653
5.3066158 -9.6445837 -0.50957239
5.2827673 -9.6690521 -0.51003653
5.2618918 -9.7031622 -0.51096469
5.2313828 -9.7196445 -0.51096469
5.2055292 -9.7448416 -0.51142877
5.1825438 -9.7797012 -0.512357
5.1674619 -9.8215542 -0.51374924
5.1412067 -9.8465939 -0.51421332
5.1240382 -9.8893023 -0.51560563
5.1112213 -9.9408827 -0.51746196
5.1026721 -10.001378 -0.51978242
5.0937929 -10.061916 -0.52210289
5.5305004 -9.6065483 -0.57883567
5.4953403 -9.6152048 -0.57831234
5.4355464 -9.5803022 -0.57517213
5.4005232 -9.5886288 -0.5746488
5.3589554 -9.5890493 -0.57360208
5.3304806 -9.604908 -0.57360208
5.3002796 -9.6216068 -0.57360208
5.2700262 -9.6382103 -0.57360208
5.2444825 -9.663496 -0.57412541
5.2188325 -9.6887169 -0.5746488
5.1930757 -9.7138729 -0.57517213
5.1765699 -9.7566061 -0.57674223
5.1505446 -9.7816572 -0.57726556
5.1290369 -9.8154936 -0.57831234
5.1136827 -9.8572636 -0.57988238
5.0992384 -9.909688 -0.58197582
5.0788956 -9.9425621 -0.58302253
5.0747161 -10.011918 -0.58616269
5.3476672 -9.6703987 -1.0408367
5.3076711 -9.6697016 -1.0389546
5.2724996 -9.6775885 -1.0380135
5.2390208 -9.6844358 -1.0370724
5.2085705 -9.7008467 -1.0370724
5.1686969 -9.6995945 -1.0351902
5.142858 -9.7245836 -1.0361314
5.1076508 -9.7318792 -1.0351902
5.0770521 -9.7478771 -1.0351902
5.0464034 -9.7637787 -1.0351902
5.011157 -9.7707281 -1.0342492
4.9894762 -9.8041639 -1.0361314
4.9586511 -9.8197908 -1.0361314
4.9339585 -9.8433571 -1.0370724
4.9101615 -9.877491 -1.0389546
4.8984709 -9.9277191 -1.0427189
4.8935461 -9.9966965 -1.0483654
4.8838835 -10.056787 -1.0530708
4.8652401 -10.098982 -1.055894
4.8721623 -10.195043 -1.0643637
5.4665532 -9.6159678 -0.63743001
5.416707 -9.5983076 -0.63512051
5.3816514 -9.6065645 -0.63454312
5.3417497 -9.6059694 -0.63338834
5.3115449 -9.6227036 -0.63338834
5.2764959 -9.6305857 -0.63281095
5.2509794 -9.6558867 -0.63338834
5.2206192 -9.6723347 -0.63338834
5.1949167 -9.6974907 -0.63396573
5.1691079 -9.7225809 -0.63454312
5.1431928 -9.7476044 -0.63512051
5.1217976 -9.7814064 -0.63627523
5.1094389 -9.8328924 -0.63858473
5.0876656 -9.8666468 -0.63973957
5.0839024 -9.9359188 -0.64320379
5.057178 -9.9607458 -0.64378119
5.0393219 -10.003338 -0.64551336
5.4495921 -9.6552343 -0.70666099
5.41435 -9.6636038 -0.70602256
5.3693995 -9.6544085 -0.70410752
5.3293881 -9.6537619 -0.70283085
5.2959194 -9.6607828 -0.70219249
5.2655435 -9.6773729 -0.70219249
5.2351151 -9.6938667 -0.70219249
5.2046351 -9.7102661 -0.70219249
5.183486 -9.7441845 -0.70346916
5.1528482 -9.7604208 -0.70346916
5.1267953 -9.7853985 -0.70410752
5.1052446 -9.8191614 -0.70538425
5.0881124 -9.8617506 -0.70729935
5.0662103 -9.8954477 -0.70857602
5.050406 -9.9371185 -0.71049112
5.0264177 -9.9716301 -0.71176779
5.0191598 -10.031113 -0.71495962
5.0098314 -10.091515 -0.71815139
5.7235842 -9.5780497 -0.19407076
5.6679344 -9.5530024 -0.19319813
5.627737 -9.5535374 -0.1928491
5.5875916 -9.5539131 -0.19250004
5.5475001 -9.5541325 -0.192151
5.5124602 -9.5628529 -0.19197647
5.4823904 -9.5801239 -0.19197647
5.4473233 -9.5886087 -0.19180194
5.4270048 -9.6230879 -0.192151
5.3869691 -9.6226454 -0.19180194
5.3567119 -9.6395216 -0.19180194
5.3312359 -9.6650553 -0.19197647
5.312151 -9.6983643 -0.19232552
5.2864366 -9.7237864 -0.19250004
5.2653675 -9.7579403 -0.1928491
5.2630343 -9.8273039 -0.19389623
5.2415295 -9.8614426 -0.19424528
5.2292004 -9.9132261 -0.19494338
5.3352823 -9.6448317 -0.78143811
5.304956 -9.6615458 -0.78143811
5.2667136 -9.659729 -0.78001857
5.2410898 -9.6849985 -0.78072834
5.2153587 -9.7102032 -0.78143811
5.1848278 -9.7265396 -0.78143811
5.152545 -9.74368 -0.78143811
5.1328883 -9.7765865 -0.7828576
5.1021485 -9.7926636 -0.7828576
5.0805244 -9.8263636 -0.78427714
5.0541835 -9.8511496 -0.78498679
5.0322652 -9.8847561 -0.78640634
5.0236812 -9.9450302 -0.78995514
5.0147676 -10.005345 -0.79350382
4.9921961 -10.038913 -0.79492337
5.7535067 -9.6056318 -0.25902984
5.6172042 -9.5818167 -0.2569409
5.5719833 -9.5734987 -0.25624457
5.5318732 -9.5736446 -0.25578037
5.491818 -9.5736351 -0.25531617
5.4617143 -9.5908413 -0.25531617
5.4315572 -9.6079521 -0.25531617
5.4013462 -9.6249685 -0.25531617
5.3613486 -9.624423 -0.25485194
5.3359251 -9.6499672 -0.25508404
5.3152061 -9.6842098 -0.25554827
5.291234 -9.7087145 -0.25578037
5.2702236 -9.7428751 -0.25624457
5.2443204 -9.7681913 -0.2564767
5.2418227 -9.8375511 -0.2578693
5.2185183 -9.8725557 -0.25833353
5.2077918 -9.9234018 -0.25926197
5.1950679 -9.9751778 -0.26019037
5.4445152 -9.6587496 -0.84619147
5.3946748 -9.6409979 -0.84313661
5.3578358 -9.6501169 -0.84237289
5.3195548 -9.6485062 -0.84084553
5.2844315 -9.6564226 -0.84008181
5.2588267 -9.6817398 -0.84084553
5.2236547 -9.689435 -0.84008181
5.1931887 -9.7057981 -0.84008181
5.167346 -9.7308722 -0.84084553
5.1367502 -9.7470579 -0.84084553
5.1061034 -9.7631474 -0.84084553
5.079998 -9.7879906 -0.84160918
5.0583515 -9.8216314 -0.84313661
5.0302882 -9.8472319 -0.84390038
5.0208082 -9.8968115 -0.84695518
4.9986544 -9.9303493 -0.84848255
4.9897008 -9.9906092 -0.85230112
4.9715667 -10.033039 -0.85459226
4.957612 -10.084403 -0.85764712
5.6431575 -9.599556 -0.31767917
5.592823 -9.5827017 -0.3165344
5.5493317 -9.573307 -0.3156758
5.5092607 -9.5733652 -0.31510341
5.469243 -9.5732651 -0.314531
5.4342113 -9.5817041 -0.31424481
5.4040823 -9.5987291 -0.31424481
5.3690252 -9.6069326 -0.31395862
5.3485131 -9.6412363 -0.314531
5.3181987 -9.6579914 -0.314531
5.2878308 -9.6746511 -0.314531
5.257411 -9.6912155 -0.314531
5.2316766 -9.716486 -0.31481722
5.2199645 -9.7681417 -0.31596202
5.1939335 -9.7933245 -0.31624821
5.1910663 -9.8626699 -0.31796539
5.1693091 -9.8966513 -0.3185378
5.1583233 -9.947444 -0.31968257
5.4660301 -9.5954609 -0.89692014
5.3850479 -9.6639671 -0.89854497
5.3402014 -9.6546659 -0.89610773
5.3050523 -9.6626549 -0.89529526
5.2746696 -9.6792736 -0.89529526
5.2394981 -9.6870279 -0.89448291
5.2090397 -9.7034407 -0.89448291
5.1785297 -9.719758 -0.89448291
5.1572776 -9.7536049 -0.89610773
5.1266103 -9.7697592 -0.89610773
5.1004915 -9.7946587 -0.89692014
5.0696959 -9.8106346 -0.89692014
5.0433931 -9.8353844 -0.89773262
5.0169849 -9.8600645 -0.89854497
4.9949594 -9.8935766 -0.90016985
4.9861522 -9.9537878 -0.90423203
4.9725833 -10.005113 -0.90748173
4.9587412 -10.056451 -0.91073143
4.9533763 -10.12571 -0.91560596
5.5946636 -9.5786905 -0.38598841
5.5495176 -9.5702753 -0.38494143
5.5144424 -9.5789986 -0.38459244
5.4744129 -9.5789175 -0.38389447
5.4295106 -9.5699835 -0.38284746
5.3945189 -9.5782843 -0.38249847
5.3644013 -9.5951843 -0.38249847
5.3342309 -9.611989 -0.38249847
5.3040075 -9.6287003 -0.38249847
5.2785215 -9.6540861 -0.38284746
5.2529292 -9.6794081 -0.38319644
5.2272296 -9.7046642 -0.38354546
5.2108369 -9.7474852 -0.38459244
5.1848683 -9.7726383 -0.38494143
5.1774006 -9.8331051 -0.38668641
5.1511078 -9.858182 -0.38703543
5.1384964 -9.9098129 -0.3884314
5.1256108 -9.961462 -0.38982737
