# .PCD v0.7 - Point Cloud Data file format
VERSION 0.7
FIELDS x y z
SIZE 4 4 4
TYPE F F F
COUNT 1 1 1
WIDTH 83
HEIGHT 1
VIEWPOINT 0 0 0 1 0 0 0
POINTS 83
DATA ascii
8.2655277 -12.850638 0.087775618
8.2388649 -12.856582 0.0026581362
8.2633429 -12.828775 -0.071719371
8.2337751 -12.871521 -0.071813621
8.1986589 -12.905766 -0.071860746
8.1794128 -12.965292 -0.07204923
8.1651802 -13.033298 -0.072284833
8.2582083 -12.819046 -0.15662037
8.2286673 -12.861776 -0.1568263
8.2065516 -12.911457 -0.15713522
8.1872873 -12.971005 -0.1575471
8.1730356 -13.039036 -0.15806197
8.1584435 -12.880893 -0.61345947
8.1498747 -12.957196 -0.61587781
8.1144247 -12.991208 -0.61628091
8.0999203 -13.059082 -0.61829621
8.0798273 -13.118487 -0.61990845
8.1815271 -12.885543 -0.70727539
8.1592503 -12.935105 -0.70866764
8.1291809 -12.977605 -0.70959586
8.1094799 -13.037005 -0.71145219
8.0999861 -13.113405 -0.71423674
8.1057634 -13.215418 -0.71841359
8.1545916 -12.920952 -0.79864663
8.1245642 -12.963432 -0.79969341
8.1101761 -13.031287 -0.80231023
8.1006908 -13.107675 -0.80545032
8.1144409 -12.890549 -1.4360912
8.0844641 -12.932858 -1.4379734
8.0543013 -12.975105 -1.4398555
8.0396338 -13.04271 -1.4445609
8.0090208 -13.084882 -1.4464431
7.9885688 -13.144001 -1.4502075
7.978117 -13.220164 -1.4558539
8.1587095 -12.90079 -0.88050795
8.1340599 -12.951727 -0.88224012
8.1144505 -13.011107 -0.88454962
8.0945482 -13.070493 -0.88685912
8.0743532 -13.129882 -0.88916868
8.1353378 -12.944185 -0.97540915
8.121067 -13.011999 -0.97860098
8.0906696 -13.054409 -0.97987765
8.0810194 -13.130745 -0.98370785
8.0553493 -13.181608 -0.98562288
8.1898956 -12.860975 -0.2654511
8.1975756 -12.962677 -0.26702181
8.1408501 -12.962971 -0.26649824
8.1477318 -13.064819 -0.26806897
8.1224489 -13.115848 -0.26859254
8.1562347 -12.875516 -1.0816636
8.1361942 -12.923564 -1.0837928
8.1061306 -12.965976 -1.0852123
8.0864058 -13.025272 -1.0880514
8.0663881 -13.084574 -1.0908904
8.0564947 -13.160891 -1.0951489
8.2204866 -12.887197 -0.35396105
8.1830549 -12.922831 -0.35419312
8.1522617 -12.954093 -0.35442525
8.1327219 -13.013549 -0.35535365
8.123435 -13.089997 -0.35674632
8.1816549 -12.863998 -1.1646588
8.1465244 -12.898068 -1.1654224
8.1165571 -12.940494 -1.16695
8.0864038 -12.982856 -1.1684773
8.0770407 -13.059079 -1.1730596
8.0568428 -13.118378 -1.1761144
8.041543 -13.186191 -1.1799331
8.174016 -12.866849 -0.43530634
8.1655483 -12.943192 -0.43702352
8.135458 -12.985724 -0.43759593
8.1157389 -13.045171 -0.43874073
8.1009798 -13.113126 -0.44017172
8.2131071 -12.87207 -1.2413895
8.1619644 -12.880966 -1.2397646
8.1320677 -12.92342 -1.2413895
8.1125431 -12.982721 -1.2446392
8.0927248 -13.042027 -1.2478889
8.0726137 -13.101336 -1.2511386
8.0626078 -13.177654 -1.2560132
8.1614704 -12.929955 -0.53256631
8.1208096 -12.955532 -0.53256631
8.101181 -13.014926 -0.53396225
8.0917625 -13.091331 -0.53605628
