# .PCD v0.7 - Point Cloud Data file format
VERSION 0.7
FIELDS x y z
SIZE 4 4 4
TYPE F F F
COUNT 1 1 1
WIDTH 58
HEIGHT 1
VIEWPOINT 0 0 0 1 0 0 0
POINTS 58
DATA ascii
-28.736719 16.444117 0.19046848
-28.728239 16.559273 0.19075646
-28.580936 16.594233 0.1901229
-28.47687 16.653658 0.18977734
-28.708769 16.910475 0.19167799
-28.431877 16.867958 0.19018051
-28.662045 17.126419 0.19208115
-28.685221 17.262768 0.19259951
-28.811419 16.41593 0.0057805302
-28.82909 16.546185 0.005794493
-28.716366 16.601637 0.0057822759
-28.473944 16.581076 0.0057438784
-28.180187 16.528797 0.0056950096
-28.159655 16.642504 0.0057019903
-28.545486 16.991722 0.0057910024
-28.241816 17.16675 0.0057613314
-28.708021 17.573845 0.0058677965
-28.780363 17.742653 0.0058939769
-28.681746 16.238544 -0.15512495
-28.726494 16.623343 -0.15620875
-28.449509 16.582571 -0.1549836
-28.586988 16.783257 -0.15602027
-28.602976 16.913708 -0.15639724
-28.478989 17.082802 -0.15630299
-28.399508 17.15667 -0.15616164
-28.38818 17.271799 -0.15639724
-28.487255 17.454943 -0.15724543
-28.395178 17.528301 -0.15705694
-28.419485 17.659979 -0.15748104
-28.842472 16.558865 -0.34207284
-28.565266 16.519209 -0.33939558
-28.693752 16.835026 -0.34217584
-28.327997 16.981279 -0.33970448
-28.317307 17.096043 -0.34021938
-28.229288 17.164131 -0.33980748
-28.155273 16.55386 0.75736827
-28.323862 16.779606 0.76340306
-27.896152 16.638268 0.75319034
-28.347298 17.26478 0.76966995
-28.318481 17.369432 0.77036625
-28.492064 16.13777 0.57657629
-28.528801 16.396193 0.57939661
-28.382032 16.549934 0.57851523
-28.47646 16.725101 0.5815118
-28.276333 16.847397 0.57957292
-28.349613 17.133339 0.58327454
-28.278563 17.211924 0.58292198
-28.567472 16.414103 0.39057457
-28.714792 16.619007 0.3933042
-28.541515 16.638609 0.39164269
-28.514969 16.743382 0.39199871
-28.754827 17.005999 0.39603382
-28.709854 17.101366 0.39615253
-28.287312 16.970222 0.3910493
-28.353666 17.131414 0.3927108
-28.274078 17.204811 0.39235476
-28.398916 17.403297 0.39484704
-28.796419 16.652163 -0.57994348
