# .PCD v0.7 - Point Cloud Data file format
VERSION 0.7
FIELDS x y z
SIZE 4 4 4
TYPE F F F
COUNT 1 1 1
WIDTH 69
HEIGHT 1
VIEWPOINT 0 0 0 1 0 0 0
POINTS 69
DATA ascii
3.7002087 -4.3091011 1.5144565
3.6678245 -4.2986827 1.5066769
3.6480486 -4.3028235 1.5040835
3.6345129 -4.3142633 1.5040835
3.6085281 -4.3108611 1.4988971
3.5887842 -4.3147573 1.4963039
3.562891 -4.3111339 1.4911174
3.5431929 -4.3148479 1.4885241
3.5173934 -4.3110042 1.4833376
3.5038326 -4.3220334 1.4833376
3.4781051 -4.3179893 1.4781511
3.4524376 -4.3138266 1.4729646
3.4328496 -4.3170986 1.4703714
3.4072802 -4.3127179 1.4651849
3.3825238 -4.3076286 1.4599984
3.3630259 -4.3106256 1.4574051
3.3487129 -4.321754 1.4574051
3.3240738 -4.3163795 1.4522187
3.3046203 -4.3191366 1.4496254
3.2793298 -4.3141317 1.4444388
3.259932 -4.3167124 1.4418457
3.2405503 -4.3192129 1.4392524
3.2154052 -4.3138971 1.4340658
3.1960819 -4.3162217 1.4314727
3.176775 -4.3184676 1.4288794
3.1517789 -4.3128433 1.4236929
3.1382141 -4.3227239 1.4236929
3.1246183 -4.3325615 1.4236929
2.9527373 -4.3467927 1.4003538
2.928246 -4.3400474 1.3951672
2.9092116 -4.341208 1.392574
2.9009192 -4.3583603 1.3951672
2.8872125 -4.3674521 1.3951672
2.7933362 -4.3134618 1.3692347
2.7797713 -4.322216 1.3692347
2.7609713 -4.322794 1.3666415
2.7421951 -4.3232965 1.3640482
2.7285995 -4.3318901 1.3640482
2.7098463 -4.3322587 1.361455
2.6911175 -4.332552 1.3588617
2.6724141 -4.3327708 1.3562685
2.6537356 -4.3329144 1.3536752
2.6401103 -4.3412299 1.3536752
2.6214573 -4.3412409 1.351082
2.6028302 -4.3411775 1.3484887
2.5842299 -4.3410401 1.3458955
2.5705795 -4.3491373 1.3458955
2.552006 -4.3488669 1.3433022
2.538331 -4.356863 1.3433022
2.514941 -4.3481064 1.3381157
2.4964502 -4.3476162 1.3355225
2.4827793 -4.3554378 1.3355225
2.469084 -4.3632159 1.3355225
2.4506247 -4.3625364 1.3329293
2.4321942 -4.361784 1.3303361
2.4145536 -4.3605371 1.3277427
2.4008429 -4.3681011 1.3277427
2.382473 -4.3671489 1.3251494
2.3687415 -4.3746123 1.3251494
2.3549867 -4.3820324 1.3251494
2.3366535 -4.3808928 1.3225563
2.3138227 -4.371151 1.3173698
2.3000789 -4.3783984 1.3173698
2.2818379 -4.3770437 1.3147764
2.2636282 -4.375618 1.3121833
2.2462137 -4.3737288 1.30959
2.2288301 -4.3717752 1.3069968
2.2143204 -4.3791423 1.3069968
2.2048929 -4.3947043 1.30959
