# .PCD v0.7 - Point Cloud Data file format
VERSION 0.7
FIELDS x y z
SIZE 4 4 4
TYPE F F F
COUNT 1 1 1
WIDTH 113
HEIGHT 1
VIEWPOINT 0 0 0 1 0 0 0
POINTS 113
DATA ascii
1.9333644 -3.9472249 1.1695546
1.9124899 -3.9359169 1.1643682
1.9001154 -3.9419057 1.1643682
1.8793669 -3.9304404 1.1591816
1.8628597 -3.9276047 1.1565884
1.842266 -3.9159703 1.151402
1.8258591 -3.9129918 1.1488086
1.8054218 -3.9011896 1.1436222
1.7891167 -3.8980701 1.141029
1.772849 -3.8948865 1.1384357
1.760604 -3.9004369 1.1384357
1.7450641 -3.8968349 1.1358424
1.7328134 -3.902298 1.1358424
1.7166417 -3.8988883 1.1332492
1.704385 -3.9042618 1.1332492
1.6882631 -3.9007392 1.130656
1.6760002 -3.9060237 1.130656
1.6637208 -3.9112697 1.130656
1.651425 -3.9164772 1.130656
1.6353765 -3.9127398 1.1280627
1.6230761 -3.9178581 1.1280627
1.6070794 -3.9140086 1.1254693
1.5947752 -3.9190381 1.1254693
1.5824553 -3.9240289 1.1254693
1.5672082 -3.919744 1.1228762
1.5548862 -3.9246483 1.1228762
1.5425489 -3.9295137 1.1228762
1.5301963 -3.9343405 1.1228762
1.5178287 -3.9391282 1.1228762
1.5019896 -3.9348588 1.1202829
1.4896204 -3.939558 1.1202829
1.4738371 -3.9351788 1.1176897
1.4580958 -3.9307389 1.1150964
1.4457399 -3.9353004 1.1150964
1.4340574 -3.9395726 1.1150964
1.4183865 -3.9349773 1.1125032
1.4092761 -3.9485052 1.1150964
1.3968645 -3.952913 1.1150964
1.3780359 -3.9390583 1.1099099
1.3688273 -3.9524901 1.1125032
1.3532591 -3.947639 1.1099099
1.3401606 -3.9521048 1.1099099
1.3253419 -3.9469128 1.1073167
1.3105657 -3.9416671 1.1047235
1.2914287 -3.9276505 1.0995369
1.2730823 -3.9133282 1.0943505
1.2607819 -3.9173083 1.0943505
1.2455264 -3.9120514 1.0917573
1.2361439 -3.9251528 1.0943505
1.215152 -3.9013662 1.0865707
1.2086014 -3.9236164 1.0917573
1.196269 -3.9273939 1.0917573
1.1818116 -3.9216826 1.0891639
1.166715 -3.9161243 1.0865707
1.1461822 -3.891988 1.078791
1.1305593 -3.886498 1.0761977
1.1163393 -3.8805575 1.0736045
1.1014887 -3.8747594 1.0710113
1.0893104 -3.8782008 1.0710113
1.0771213 -3.881604 1.0710113
1.0649221 -3.8849685 1.0710113
1.0469621 -3.8698404 1.0658249
1.0354756 -3.8729296 1.0658249
1.0208248 -3.8668289 1.0632315
1.0086718 -3.8700168 1.0632315
0.99650878 -3.8731666 1.0632315
0.98194551 -3.8669205 1.0606382
0.96743149 -3.8606217 1.058045
0.95296657 -3.8542693 1.0554518
0.93855131 -3.8478649 1.0528585
0.92418557 -3.8414075 1.0502652
0.91053927 -3.8347394 1.047672
0.89848757 -3.8375812 1.047672
0.88642699 -3.840385 1.047672
0.87220156 -3.8337364 1.0450788
0.85802668 -3.8270369 1.0424856
0.84390247 -3.8202858 1.0398922
0.82776201 -3.8040504 1.0347058
0.8158071 -3.806632 1.0347058
0.80183625 -3.7997293 1.0321126
0.78791678 -3.7927766 1.0295193
0.77666003 -3.7950976 1.0295193
0.76473355 -3.7975187 1.0295193
0.750247 -3.7905624 1.026926
0.73647553 -3.7834234 1.0243328
0.72458595 -3.7857184 1.0243328
0.71268916 -3.787976 1.0243328
0.7007854 -3.7901964 1.0243328
0.68713456 -3.7828794 1.0217395
0.67590761 -3.7849016 1.0217395
0.66569573 -3.7965167 1.0243328
0.65376532 -3.7985892 1.0243328
0.64345074 -3.8101449 1.026926
0.62988532 -3.8026218 1.0243328
0.61949831 -3.8141127 1.026926
0.60904539 -3.8255758 1.0295193
0.59852648 -3.8370106 1.0321126
0.58646917 -3.838872 1.0321126
0.57729119 -3.8597946 1.037299
0.56375045 -3.852035 1.0347058
0.55370253 -3.8632491 1.037299
0.54291713 -3.8745317 1.0398922
0.5333904 -3.8953516 1.0450788
0.52244425 -3.9065793 1.047672
0.51016879 -3.9082012 1.047672
0.50035602 -3.9289422 1.0528585
0.48921466 -3.9400771 1.0554518
0.47800782 -3.9511809 1.058045
0.4678795 -3.971843 1.0632315
0.45873952 -4.0020742 1.0710113
0.4494141 -4.0322862 1.078791
0.44622201 -4.1200809 1.1021303
0.4475973 -4.2559128 1.1384357
