# .PCD v0.7 - Point Cloud Data file format
VERSION 0.7
FIELDS x y z
SIZE 4 4 4
TYPE F F F
COUNT 1 1 1
WIDTH 56
HEIGHT 1
VIEWPOINT 0 0 0 1 0 0 0
POINTS 56
DATA ascii
-2.8122146 -17.008371 0.099064335
-2.8623164 -16.979733 0.098949157
-2.9293633 -16.430208 0.095896587
-2.6593704 -16.517208 0.0029129544
-2.7865977 -16.658464 0.0029408797
-2.8889778 -16.610565 0.0029356438
-2.7612207 -16.841108 0.68087405
-3.0221899 -16.481419 0.66848725
-3.0647693 -16.422733 0.66648942
-2.7346776 -16.565538 -0.078929015
-2.803314 -16.655476 -0.079400234
-2.8539331 -16.636732 -0.079353109
-2.9084473 -16.657742 -0.079494469
-3.025696 -16.45586 0.96538383
-2.7759261 -16.800924 -0.17494936
-2.8153811 -16.713242 -0.1741256
-2.8610926 -16.664894 -0.1737137
-2.7468679 -16.98148 0.50337857
-2.7531085 -16.686741 0.4948765
-3.0479648 -16.543941 0.49223793
-3.0594723 -16.318132 0.48578814
-2.7481296 -16.974279 0.39829725
-2.7884209 -16.886652 0.39644039
-3.0253773 -16.408869 0.38645974
-2.7427938 -16.926491 0.30159643
-2.7616997 -16.710638 0.29789481
-2.8091972 -16.6723 0.29736599
-2.9995174 -16.547668 0.29577956
-2.7800279 -16.789801 0.20151797
-2.8310933 -16.771126 0.20139928
-2.9520612 -16.536993 0.19890702
-3.0093727 -16.55715 0.19926305
-2.8054869 -16.894333 -0.68923503
-2.8219242 -16.668686 -0.68036765
-2.9149699 -16.896065 -0.69004112
-2.7926245 -16.912468 -0.79452455
-2.8196139 -16.766193 -0.78802729
-2.7849929 -16.888407 -0.89494485
-2.8363788 -16.869726 -0.89442152
-2.7811682 -16.924023 -0.9896332
-2.7946537 -16.678909 -0.97577602
-2.8840818 -16.886532 -0.98847836
-2.8145189 -16.912024 -1.0941435
-2.8676357 -16.903097 -1.0941435
-2.8290088 -16.962677 -0.2994833
-2.8287618 -16.638262 -0.29389852
-2.9082754 -16.78693 -0.29669091
-2.7486839 -16.884504 -1.2143873
-2.7723286 -16.698662 -1.2016119
-2.8060615 -16.88373 -0.39643636
-2.8344693 -16.747185 -0.39341897
-2.8270383 -16.796719 -0.4865357
-2.8967037 -16.886272 -0.48939767
-2.7824814 -16.840902 -0.5946874
-2.8353748 -16.832077 -0.5946874
-2.9034882 -16.911732 -0.59782833
