# .PCD v0.7 - Point Cloud Data file format
VERSION 0.7
FIELDS x y z
SIZE 4 4 4
TYPE F F F
COUNT 1 1 1
WIDTH 218
HEIGHT 1
VIEWPOINT 0 0 0 1 0 0 0
POINTS 218
DATA ascii
-16.021917 7.1361651 0.10079221
-15.7902 7.2121177 0.099755488
-15.722043 7.2407899 0.099467516
-15.672006 7.2775183 0.099294722
-15.62189 7.3140078 0.099121936
-15.624683 7.3785696 0.099294722
-15.592395 7.423326 0.099237129
-15.596048 7.4852443 0.099409916
-15.617469 7.5559669 0.099697895
-15.639932 7.6241655 0.099985868
-16.012772 7.1582222 0.0030543262
-15.735506 7.2129998 0.0030141836
-15.658299 7.2372332 0.0030037113
-15.617359 7.2779417 0.003000221
-15.612517 7.3354735 0.0030037113
-15.589396 7.3844833 0.0030037113
-15.602218 7.4506583 0.0030106928
-15.596757 7.5083084 0.0030141836
-15.609078 7.5747313 0.0030211648
-15.630122 7.6456943 0.0030298913
-15.903358 7.024683 0.69366038
-15.799079 7.0379891 0.69006431
-15.711864 7.0616479 0.68726724
-15.56221 7.0531831 0.68167323
-15.512713 7.0895715 0.68047446
-15.481294 7.1340847 0.68007493
-15.485983 7.1953268 0.68127364
-15.481398 7.2524238 0.68207276
-15.494669 7.3181067 0.68367106
-15.527015 7.3898296 0.68606853
-15.538449 7.4585862 0.68766677
-15.559907 7.5291386 0.68966472
-15.59903 7.6086698 0.69246173
-15.682635 7.7105742 0.69725657
-15.728374 7.1559515 -0.081237979
-15.67855 7.1928139 -0.081096612
-15.62865 7.2294393 -0.080955252
-15.605862 7.2785001 -0.080955252
-15.582917 7.3274937 -0.080955252
-15.559821 7.3764105 -0.080955252
-15.572657 7.4425101 -0.081143729
-15.5492 7.491394 -0.081143729
-15.552572 7.5533175 -0.081285104
-15.582652 7.6285243 -0.081567831
-15.869795 7.1562524 -0.17886229
-15.670017 7.1849246 -0.17711177
-15.629218 7.2257228 -0.17690584
-15.570193 7.257875 -0.17649394
-15.548591 7.30404 -0.17649394
-15.542355 7.3641305 -0.17669989
-15.537186 7.4215498 -0.17690584
-15.531809 7.4790039 -0.17711177
-15.535219 7.5408721 -0.17742069
-15.547376 7.6072292 -0.17783259
-15.622032 7.70472 -0.17896527
-16.068815 7.0865254 0.51393276
-15.782703 7.1388588 0.50689662
-15.623764 7.1262274 0.50249898
-15.610383 7.1794472 0.50279218
-15.59682 7.2326579 0.50308537
-15.601192 7.294311 0.5039649
-15.585957 7.3502669 0.50425804
-15.588581 7.4147844 0.50513756
-15.584543 7.4696388 0.50572395
-15.588003 7.531601 0.50660342
-15.654145 7.6242728 0.50953513
-15.702097 7.1546497 0.39968988
-15.643205 7.1872511 0.39876148
-15.620547 7.2363625 0.39876148
-15.606796 7.2896276 0.39899358
-15.59286 7.3428817 0.39922565
-15.596811 7.4046898 0.39992198
-15.591508 7.4622846 0.40038621
-15.61301 7.5329437 0.40154675
-15.670187 7.6212983 0.40363571
-15.937814 7.0741138 0.30670828
-15.783699 7.1247396 0.30459303
-15.743041 7.1660028 0.30424052
-15.665929 7.1903968 0.30318287
-15.634192 7.2353759 0.30300662
-15.602323 7.2802296 0.30283037
-15.597467 7.3377213 0.30318287
-15.592404 7.3952594 0.30353543
-15.587135 7.4528341 0.30388796
-15.608675 7.5234785 0.30476931
-15.629928 7.5943279 0.30565065
-15.753468 7.1699591 0.20495968
-15.667258 7.190197 0.20412891
-15.617372 7.2267776 0.20377289
-15.594592 7.2758031 0.20377289
-15.572936 7.322041 0.20377289
-15.557603 7.3779306 0.20389156
-15.543367 7.431088 0.20401025
-15.546964 7.4929118 0.20436627
-15.559319 7.5592051 0.204841
-15.625281 7.6520567 0.20602778
-15.717917 7.312129 -0.69769931
-15.595344 7.3148327 -0.69326562
-15.561969 7.3622398 -0.69286257
-15.547782 7.4153886 -0.69326562
-15.524408 7.4641991 -0.69326562
-15.500883 7.5129313 -0.69326562
-15.487504 7.5632715 -0.69366866
-15.517464 7.6383519 -0.69608706
-15.520247 7.7003751 -0.6972962
-15.548249 7.7786064 -0.69971454
-15.803085 7.2606254 -0.80612683
-15.671426 7.2598639 -0.80055779
-15.612336 7.2921534 -0.79870135
-15.580312 7.3369122 -0.79823726
-15.548163 7.3815384 -0.79777324
-15.533905 7.4346609 -0.79823726
-15.501476 7.4790845 -0.79777324
-15.504855 7.5408483 -0.79916549
-15.499027 7.5983157 -0.80009365
-15.492993 7.6558166 -0.80102187
-15.53905 7.742784 -0.80473459
-15.560648 7.8112574 -0.80705506
-15.749308 7.2219663 -0.90593535
-15.672157 7.2462592 -0.90279526
-15.604062 7.2743545 -0.90017837
-15.56306 7.3148413 -0.89913172
-15.530977 7.3594227 -0.89860839
-15.48976 7.3995652 -0.89756161
-15.493427 7.461195 -0.89913172
-15.478895 7.5141921 -0.8996551
-15.473149 7.5715656 -0.90070176
-15.467199 7.6289735 -0.90174848
-15.487863 7.6997614 -0.90436524
-15.533659 7.7868886 -0.90855211
-15.778091 7.2179017 -1.0011809
-15.682826 7.2339573 -0.99656183
-15.641919 7.2747669 -0.99540704
-15.584112 7.3041859 -0.99309742
-15.514684 7.3344774 -0.99021059
-15.491567 7.3831801 -0.99021059
-15.468296 7.4318099 -0.99021059
-15.453855 7.4847245 -0.99078798
-15.448206 7.5420008 -0.99194276
-15.451302 7.6037297 -0.99367481
-15.445224 7.6611099 -0.99482965
-15.465718 7.7319312 -0.99771649
-15.530494 7.8254285 -1.0034903
-15.850595 7.2597547 -1.1126559
-15.548048 7.3656611 -1.0979736
-15.544141 7.4203529 -1.0992503
-15.520753 7.4691477 -1.0992503
-15.506191 7.5222259 -1.0998887
-15.492771 7.5725794 -1.100527
-15.468904 7.6212163 -1.100527
-15.470366 7.6857796 -1.1024423
-15.481841 7.7522063 -1.1049956
-15.528697 7.8367505 -1.1101024
-15.759796 7.2248521 -0.30192661
-15.664405 7.2407866 -0.30053043
-15.64158 7.2899642 -0.30053043
-15.599218 7.3332925 -0.30018136
-15.565781 7.3807015 -0.30000687
-15.552835 7.43116 -0.30018136
-15.556441 7.49299 -0.30070496
-15.54182 7.5461912 -0.30087948
-15.573257 7.6186161 -0.30192661
-15.612029 7.6984348 -0.30314827
-15.658048 7.7857547 -0.30454448
-15.796689 7.2143412 -1.2328409
-15.583445 7.2952509 -1.2214849
-15.524367 7.3271441 -1.2186459
-15.474247 7.3630266 -1.2165166
-15.469028 7.420228 -1.2179362
-15.45462 7.4731326 -1.2186459
-15.457968 7.5347538 -1.2207751
-15.452126 7.5920768 -1.2221947
-15.437139 7.6450076 -1.2229044
-15.465247 7.7228894 -1.227163
-15.486822 7.791151 -1.2307118
-15.908305 7.2083364 -0.40456006
-15.626334 7.3186469 -0.39968583
-15.576143 7.3549018 -0.39898953
-15.552961 7.4037971 -0.39898953
-15.547649 7.4612722 -0.39945373
-15.533134 7.5144305 -0.39968583
-15.536408 7.5763373 -0.40038216
-15.54842 7.6427431 -0.40131056
-15.578085 7.7181792 -0.40270323
-15.618611 7.2744322 -1.3166373
-15.532506 7.2937922 -1.3112913
-15.455446 7.316946 -1.3067089
-15.414388 7.3568764 -1.3051816
-15.418153 7.4182348 -1.3074727
-15.421683 7.4796944 -1.3097638
-15.424982 7.5412455 -1.312055
-15.401214 7.5896692 -1.312055
-15.386225 7.6424508 -1.3128188
-15.423199 7.7246943 -1.3181647
-15.434457 7.7910833 -1.3212194
-15.455708 7.8594499 -1.3250381
-15.876811 7.2234354 -0.4982698
-15.617797 7.283999 -0.49225962
-15.5677 7.3202667 -0.49140105
-15.544627 7.3691363 -0.49140105
-15.51238 7.4136252 -0.49111485
-15.498019 7.46666 -0.49140105
-15.492467 7.5240493 -0.49197346
-15.495685 7.5858688 -0.49283203
-15.498667 7.6477876 -0.49369064
-15.537211 7.7276044 -0.49569401
-15.593277 7.8167038 -0.4982698
-15.656844 7.2384367 -0.60096931
-15.588744 7.2664609 -0.59922439
-15.549027 7.3041768 -0.59852636
-15.533751 7.3599815 -0.59887534
-15.51055 7.4087481 -0.59887534
-15.4872 7.4574375 -0.59887534
-15.472684 7.5104241 -0.59922439
-15.475939 7.5721788 -0.60027128
-15.461035 7.625186 -0.60062033
-15.499639 7.7048788 -0.60306329
-15.537893 7.7848935 -0.6055063
