# .PCD v0.7 - Point Cloud Data file format
VERSION 0.7
FIELDS x y z
SIZE 4 4 4
TYPE F F F
COUNT 1 1 1
WIDTH 129
HEIGHT 1
VIEWPOINT 0 0 0 1 0 0 0
POINTS 129
DATA ascii
-22.153509 -6.9536405 0.13350649
-22.137047 -6.8721375 0.13327609
-22.168085 -6.8054981 0.1333337
-22.208494 -6.7416325 0.13344888
-22.248714 -6.6775856 0.13356407
-22.298344 -6.6161938 0.13373686
-22.405373 -6.5714622 0.13425522
-22.48353 -6.5177569 0.13460079
-22.243029 -7.1694555 0.0040718531
-22.127029 -6.9067707 0.0040386915
-22.140255 -6.8304071 0.0040369462
-22.141296 -6.7588453 0.0040334556
-22.182735 -6.6911616 0.0040369462
-22.222813 -6.6271596 0.0040404368
-22.310663 -6.5771079 0.0040526544
-22.41762 -6.5321722 0.0040683621
-22.230923 -7.1777072 0.93260568
-22.129616 -7.0683351 0.9274112
-22.075483 -6.9747171 0.9242146
-22.078211 -6.8993716 0.92341542
-22.080683 -6.8240838 0.92261636
-22.092457 -6.7517605 0.92221677
-22.123123 -6.6852126 0.92261636
-22.182314 -6.6271067 0.9242146
-22.260525 -6.5743561 0.92661202
-22.338625 -6.521174 0.9290095
-22.46348 -6.4853272 0.9334048
-22.059401 -7.0206966 -0.10889847
-22.081348 -6.9513636 -0.10889847
-22.093533 -6.878984 -0.10885136
-22.115032 -6.8095441 -0.10885136
-22.117184 -6.7342072 -0.10875711
-22.128654 -6.6618114 -0.10870998
-22.20698 -6.6093731 -0.10899272
-22.26601 -6.5508595 -0.1091812
-22.392103 -6.5115862 -0.10969954
-22.059523 -7.0160508 -0.23796821
-22.06238 -6.9407144 -0.23776227
-22.064978 -6.8654351 -0.23755632
-22.067322 -6.7902017 -0.23735037
-22.09811 -6.723753 -0.23745336
-22.119125 -6.6542935 -0.23745336
-22.159092 -6.5904713 -0.23765931
-22.274485 -6.5528951 -0.23868902
-22.371782 -6.5052004 -0.2395128
-22.14854 -7.0371594 0.68045521
-22.121651 -6.9564095 0.67898935
-22.133852 -6.883904 0.67869616
-22.164921 -6.8172784 0.67898935
-22.18623 -6.7476087 0.67898935
-22.236032 -6.6865201 0.67986882
-22.285669 -6.6251855 0.68074834
-22.373501 -6.5748811 0.68280059
-22.480431 -6.5296764 0.68543911
-22.166487 -6.8936033 0.53802621
-22.178478 -6.8209944 0.53779411
-22.160364 -6.7435093 0.53686565
-22.249619 -6.6901469 0.53849041
-22.280109 -6.6230612 0.53872252
-22.377539 -6.5755911 0.54057938
-22.086054 -7.0248756 0.40788674
-22.136627 -6.9644585 0.40841556
-22.120209 -6.882997 0.40771046
-22.141722 -6.8134732 0.40771046
-22.18215 -6.7496963 0.40806302
-22.222395 -6.6857386 0.40841556
-22.272039 -6.6244378 0.40894434
-22.350298 -6.5713568 0.41000199
-22.172728 -7.1203384 0.27593008
-22.114704 -6.8725071 0.27438724
-22.08839 -6.7883248 0.27379385
-22.10961 -6.7188959 0.27379385
-22.168915 -6.6609063 0.27426854
-22.199318 -6.5940695 0.27438724
-22.285946 -6.5478902 0.27521798
-22.373632 -6.4973464 0.27604875
-22.240726 -7.1134939 -0.94034231
-22.099806 -6.9961691 -0.93349022
-22.06447 -6.9087753 -0.93107188
-22.038343 -6.8246365 -0.92905653
-22.069229 -6.7582922 -0.92945963
-22.109476 -6.6947255 -0.93026572
-22.1304 -6.6252303 -0.93026572
-22.170265 -6.5613518 -0.93107188
-22.171589 -6.4860568 -0.93026572
-22.297434 -6.4469209 -0.93469936
-22.047752 -7.0089574 -1.0729795
-22.012489 -6.9216776 -1.0701948
-22.03293 -6.8563299 -1.0701948
-22.055544 -6.7832332 -1.0701948
-22.075575 -6.7177582 -1.0701948
-22.097729 -6.6445208 -1.0701948
-22.137646 -6.5807576 -1.0711231
-22.167793 -6.5139976 -1.0715872
-22.141108 -6.9157958 -0.40419772
-22.134068 -6.8373404 -0.40367416
-22.155437 -6.7677732 -0.40367416
-22.17659 -6.6981392 -0.40367416
-22.178364 -6.6227069 -0.40332508
-22.19906 -6.5530019 -0.40332508
-22.334709 -6.516861 -0.40541938
-22.441528 -6.4716201 -0.40699011
-22.165073 -7.0973964 -0.53941339
-22.08774 -6.8437915 -0.53593183
-22.109133 -6.7743645 -0.53593183
-22.129135 -6.7087359 -0.53593183
-22.141684 -6.6324458 -0.53569973
-22.171997 -6.5656953 -0.53593183
-22.23089 -6.5072474 -0.53686023
-22.366465 -6.4707212 -0.53964555
-22.053473 -6.942656 -0.66082996
-22.036999 -6.8614521 -0.65968513
-22.048891 -6.7892489 -0.65939891
-22.070112 -6.719944 -0.65939891
-22.091114 -6.6505785 -0.65939891
-22.13106 -6.5868487 -0.65997136
-22.161234 -6.5201073 -0.66025758
-22.248796 -6.4699893 -0.66226095
-22.3843 -6.4331813 -0.66569531
-22.123444 -7.0364299 -0.80931926
-22.011965 -6.9249325 -0.80443335
-21.976353 -6.8379474 -0.80233943
-22.007278 -6.7718067 -0.80268842
-22.028444 -6.7026386 -0.80268842
-22.068533 -6.6391516 -0.80338639
-22.098862 -6.572638 -0.80373538
-22.137442 -6.5126781 -0.80443335
-22.224974 -6.4626136 -0.8068763
-22.398859 -6.4368916 -0.81246024
