# .PCD v0.7 - Point Cloud Data file format
VERSION 0.7
FIELDS x y z
SIZE 4 4 4
TYPE F F F
COUNT 1 1 1
WIDTH 70
HEIGHT 1
VIEWPOINT 0 0 0 1 0 0 0
POINTS 70
DATA ascii
-6.0812802 -6.1720467 1.06055
-6.0856028 -6.1398678 1.0581092
-6.0908513 -6.1066561 1.0556682
-6.1100063 -6.0874901 1.0556682
-6.1220512 -6.0612779 1.0544478
-6.135046 -6.0339794 1.0532274
-6.1468773 -6.0077348 1.052007
-6.1586061 -5.9814734 1.0507865
-6.1763263 -5.9631743 1.0507865
-6.187871 -5.9368663 1.0495661
-6.2064924 -5.9173961 1.0495661
-6.2250509 -5.8978696 1.0495661
-6.244575 -5.8771939 1.0495661
-6.2547426 -5.8518553 1.0483458
-6.2658315 -5.8254128 1.0471253
-6.2768149 -5.7989602 1.0459049
-6.2876954 -5.7724948 1.0446844
-6.2911425 -5.739326 1.0422436
-6.2944441 -5.7061906 1.0398027
-6.2975988 -5.6730938 1.0373619
-6.3153911 -5.6532803 1.0373619
-6.2886486 -5.5938048 1.0300393
-6.2987595 -5.5674419 1.0288188
-6.2715001 -5.5083003 1.0214964
-6.2140384 -5.4232578 1.009292
-6.2235513 -5.397203 1.0080717
-6.2329626 -5.3711395 1.0068513
-6.2488713 -5.3526225 1.0068513
-6.2656555 -5.3329654 1.0068513
-6.2823792 -5.3132544 1.0068513
-6.2990398 -5.2934923 1.0068513
-6.3156395 -5.2736759 1.0068513
-6.3321753 -5.2538099 1.0068513
-6.34865 -5.2338901 1.0068513
-6.3573866 -5.2076254 1.0056309
-6.3814101 -5.1938972 1.0068513
-6.3976951 -5.1738243 1.0068513
-6.4139166 -5.1537008 1.0068513
-6.437829 -5.1397223 1.0080717
-6.4539437 -5.119473 1.0080717
-6.4855781 -5.1114683 1.0105125
-6.5094142 -5.0971932 1.0117329
-6.533226 -5.0828171 1.0129534
-6.5570092 -5.0683427 1.0141737
-6.5965047 -5.0658689 1.0178351
-6.6518202 -5.0752487 1.0239371
-6.715167 -5.0903306 1.0312598
-6.8253231 -5.1421118 1.0459049
-6.9058838 -5.1670575 1.0556682
-6.9689503 -5.1821098 1.0629909
-7.0171132 -5.1838007 1.0678725
-7.0413628 -5.1676068 1.069093
-7.0575619 -5.1454611 1.069093
-7.0736928 -5.1232629 1.069093
-7.0897522 -5.101016 1.069093
-7.1057434 -5.0787168 1.069093
-7.1216626 -5.0563693 1.069093
-7.1375132 -5.0339699 1.069093
-7.1451664 -5.0058227 1.0678725
-7.1527147 -4.9776754 1.0666521
-7.1683168 -4.9551806 1.0666521
-7.1756701 -4.927012 1.0654316
-7.191113 -4.9044456 1.0654316
-7.2146997 -4.8874006 1.0666521
-7.2300181 -4.8647122 1.0666521
-7.2370172 -4.8364534 1.0654316
-7.2604408 -4.8191886 1.0666521
-7.2838292 -4.8018227 1.0678725
-7.3071785 -4.784359 1.069093
-7.3471241 -4.7776279 1.0727543
