# .PCD v0.7 - Point Cloud Data file format
VERSION 0.7
FIELDS x y z
SIZE 4 4 4
TYPE F F F
COUNT 1 1 1
WIDTH 59
HEIGHT 1
VIEWPOINT 0 0 0 1 0 0 0
POINTS 59
DATA ascii
15.065248 -18.795904 -0.24764757
14.974987 -18.804024 -0.24713272
14.903433 -18.835289 -0.24692677
14.844187 -18.882017 -0.24692677
14.784794 -18.928558 -0.24692677
14.749769 -19.006517 -0.24733865
15.14746 -18.949842 -0.97702086
14.941417 -18.934849 -0.97137803
14.87569 -18.973833 -0.97097498
14.819328 -19.017887 -0.97097498
14.78065 -19.098526 -0.97258717
14.784857 -19.221483 -0.97661781
15.063278 -18.919775 -1.1217091
14.985171 -18.943502 -1.1203167
14.919412 -18.982634 -1.1198527
14.859703 -19.029409 -1.1198527
14.824343 -19.107567 -1.1217091
14.825231 -19.233154 -1.1263499
15.058775 -18.901548 -1.2644367
14.993122 -18.940933 -1.2639133
14.915024 -18.964392 -1.2623432
14.873817 -19.034763 -1.2639133
14.838437 -19.112949 -1.2660067
14.854864 -19.251774 -1.272287
15.201028 -18.931555 -1.4018841
15.013581 -18.940617 -1.395533
14.923127 -18.948467 -1.392646
14.863525 -18.995256 -1.392646
14.834406 -19.081274 -1.395533
14.810992 -19.175196 -1.3989972
14.845196 -19.33786 -1.407658
15.262958 -18.985405 -1.5556755
15.044078 -18.955881 -1.5454618
14.953547 -18.963875 -1.5422701
14.88774 -19.002905 -1.5416317
14.840231 -19.065331 -1.5429084
14.81356 -19.1618 -1.5467385
15.038123 -18.840115 -0.42007941
14.966432 -18.871601 -0.41973037
14.900881 -18.910673 -0.41955584
14.816737 -18.925909 -0.41885775
14.781768 -19.003925 -0.41955584
14.761468 -19.108215 -0.4207775
15.25586 -18.957111 -0.56401658
14.927844 -18.91173 -0.55844605
14.843677 -18.927069 -0.55751765
14.802579 -18.997265 -0.55821395
14.773428 -19.083199 -0.55937451
15.116857 -18.859253 -0.69088066
14.889024 -18.938019 -0.68859112
14.817151 -18.968943 -0.68801868
14.769741 -19.031193 -0.68859112
14.768149 -19.146172 -0.69116688
15.131912 -18.879015 -0.84352082
14.9324 -18.871815 -0.83898389
14.885388 -18.934351 -0.83968186
14.819681 -18.973143 -0.83933288
14.784504 -19.051195 -0.84072888
14.779484 -19.168791 -0.84386986
