# .PCD v0.7 - Point Cloud Data file format
VERSION 0.7
FIELDS x y z
SIZE 4 4 4
TYPE F F F
COUNT 1 1 1
WIDTH 441
HEIGHT 1
VIEWPOINT 0 0 0 1 0 0 0
POINTS 441
DATA ascii
1.1622816 9.1559525 0.052930307
1.1897545 9.1423388 0.05287271
1.2211002 9.1583824 0.052987903
1.2498648 9.154501 0.052987903
1.278622 9.1505289 0.052987903
1.3115886 9.1761665 0.05316069
1.3389688 9.1621065 0.053103097
1.3677446 9.157855 0.053103097
1.3995161 9.1732845 0.053218286
1.4299237 9.1685934 0.053218286
1.4602903 9.1739321 0.053275883
1.4891026 9.1692991 0.053275883
1.5211563 9.1843081 0.053391073
1.548342 9.1696243 0.05333348
1.5788351 9.1745691 0.053391073
1.611091 9.1892662 0.053506266
1.6417027 9.194005 0.053563863
1.6739669 9.198348 0.053621452
1.7028549 9.1930447 0.053621452
1.7335774 9.1974764 0.053679049
1.7662168 9.2116299 0.053794242
1.8337519 9.2494011 0.054082219
1.8898332 9.2278986 0.054024626
1.9167817 9.2121248 0.053967029
1.9498357 9.2256279 0.054082219
2.1094131 9.2520027 0.054427791
2.1391034 9.2554474 0.054485388
2.1675057 9.2385664 0.054427791
2.1988266 9.2414408 0.054485388
2.2301867 9.2442093 0.054542981
2.2679451 9.2659073 0.054715771
2.2994447 9.2684441 0.054773368
2.3309822 9.2708731 0.054830961
2.3600998 9.263504 0.054830961
2.3941765 9.2754126 0.054946154
2.4233029 9.2678452 0.054946154
2.4549601 9.2698555 0.055003751
2.4840736 9.2620955 0.055003751
2.518388 9.27355 0.055118937
2.5501535 9.2752361 0.055176537
2.5819545 9.2768145 0.055234134
2.6154113 9.2778273 0.055291723
2.6472871 9.2791815 0.05534932
1.8149582 9.1624575 -1.0498431
1.8413941 9.1369085 -1.0475999
1.8700882 9.1310787 -1.0475999
1.9028294 9.1446123 -1.0498431
1.6368817 9.1141014 0.0016091936
1.670895 9.1384258 0.0016144295
1.6977671 9.1232996 0.0016126841
1.7266879 9.1280479 0.0016144295
1.7626162 9.1517315 0.0016196654
1.7894371 9.1363354 0.0016179201
1.8642658 9.2029991 0.0016318827
1.8855233 9.1680422 0.0016266467
1.9281855 9.2204714 0.0016371189
1.9776578 9.1690712 0.0016301376
2.0107265 9.1823511 0.001633628
2.0417304 9.1857519 0.0016353735
2.0661848 9.1597795 0.0016318827
2.1016371 9.1824894 0.0016371189
2.1327326 9.1855831 0.0016388641
2.1592882 9.1691036 0.0016371189
2.1973703 9.2011824 0.0016441002
2.2333188 9.2233925 0.0016493361
2.2670465 9.235755 0.0016528267
2.2984617 9.2382927 0.001654572
2.3315291 9.2403164 0.0016563174
2.3605459 9.2329464 0.0016563174
2.3920496 9.2351646 0.0016580628
2.4235857 9.237278 0.0016598081
2.4577246 9.2489491 0.0016632987
2.4867678 9.2411823 0.0016632987
2.5210452 9.2526217 0.0016667894
2.5527565 9.2542953 0.0016685346
2.5861204 9.2554111 0.00167028
2.6179028 9.2568645 0.0016720254
1.2009199 9.1033993 0.36561018
1.2295167 9.0995808 0.36561018
1.2594718 9.1055708 0.36600977
1.2894765 9.1114616 0.36640936
1.3179426 9.1174831 0.36680889
1.3481704 9.1130629 0.36680889
1.3782914 9.1186619 0.36720848
1.408461 9.1241608 0.36760807
1.4371172 9.1196918 0.36760807
1.4673564 9.1249952 0.36800766
1.4976385 9.1302004 0.36840722
1.5263132 9.1254501 0.36840722
1.5583434 9.1403084 0.36920637
1.5870544 9.1353664 0.36920637
1.6190841 9.1398926 0.36960593
1.6495733 9.1445923 0.37000552
1.6801031 9.1491909 0.37040508
1.7088366 9.1438684 0.37040508
1.7394255 9.1482697 0.37080464
1.770064 9.1525688 0.37120423
1.8468286 9.2291174 0.37480041
1.8986937 9.1879787 0.37360165
1.9275528 9.1819677 0.37360165
1.960567 9.1954098 0.37440082
2.0781744 9.1797915 0.37480041
2.1114872 9.1926918 0.37559953
2.1403553 9.1860132 0.37559953
2.1715059 9.1889668 0.37599912
2.200367 9.1820984 0.37599912
2.2339308 9.1945562 0.37679824
2.2651994 9.1971941 0.37719783
2.3005414 9.2090178 0.37799698
2.3294597 9.201745 0.37799698
2.3608482 9.2040577 0.37839654
2.394788 9.2159348 0.37919572
2.4237278 9.2083654 0.37919572
2.4568319 9.2099314 0.37959528
2.4909751 9.2214565 0.38039443
2.5225735 9.2232227 0.38079399
2.5568843 9.2345076 0.38159317
2.5858815 9.2264299 0.38159317
2.6175854 9.2278709 0.3819927
2.6493239 9.2292051 0.38239229
1.8547146 9.1742249 -0.043917514
1.8915826 9.2075329 -0.044106003
1.9241526 9.2109976 -0.044153124
1.9593112 9.2342529 -0.044294488
2.3976169 9.2646093 -0.044907071
1.2083389 9.1246309 0.53003728
1.2369976 9.1207905 0.53003728
1.267011 9.126749 0.53061467
1.2956761 9.1227236 0.53061467
1.3257624 9.1284885 0.53119206
1.3558928 9.1341543 0.53176945
1.3860718 9.1397219 0.53234684
1.4162991 9.1451883 0.53292418
1.4450263 9.1406927 0.53292418
1.4769162 9.1457071 0.53350157
1.5056398 9.1410227 0.53350157
1.5359962 9.1460943 0.53407896
1.5663995 9.1510649 0.53465641
1.5985584 9.1657705 0.53581113
1.6290898 9.1705332 0.53638852
1.6578906 9.16537 0.53638852
1.6866751 9.1601171 0.53638852
1.718877 9.1642866 0.53696591
1.7495232 9.1686487 0.53754324
1.7802187 9.1729078 0.53812063
1.9054425 9.198698 0.54100758
1.9384304 9.2122078 0.5421623
1.9673606 9.2060728 0.5421623
2.0889034 9.1997337 0.54331708
2.1245003 9.2223158 0.54504925
2.1557274 9.2253189 0.54562664
2.1830921 9.2188816 0.54562664
2.2159786 9.2213001 0.54620403
2.2449362 9.2142935 0.54620403
2.2786474 9.2265816 0.54735875
2.3116522 9.2286606 0.54793614
2.3430829 9.2310305 0.54851353
2.3720751 9.2236233 0.54851353
2.4060619 9.2354498 0.54966831
2.4376047 9.2375002 0.5502457
2.4691839 9.2394438 0.55082309
2.5007997 9.2412796 0.55140048
2.5324557 9.2430058 0.55197781
2.5641427 9.244627 0.5525552
2.5985579 9.2557526 0.55370998
2.6276217 9.2475433 0.55370998
2.6610286 9.248374 0.55428737
1.8228937 9.2002621 -0.09617582
1.8866988 9.2180119 -0.096484728
1.9156476 9.2120399 -0.096484728
1.9445773 9.2059765 -0.096484728
1.2214087 9.087966 0.73940277
1.251317 9.0939579 0.74021
1.2798791 9.089982 0.74021
1.3098601 9.0957804 0.74101716
1.3398856 9.1014805 0.74182439
1.3699597 9.1070824 0.74263161
1.4000822 9.1125851 0.74343884
1.4287069 9.1081409 0.74343884
1.4588944 9.1134491 0.74424607
1.4907416 9.1284924 0.74586046
1.5210544 9.1335955 0.74666768
1.5497446 9.1287708 0.74666768
1.5801197 9.1336784 0.74747491
1.6105409 9.138484 0.74828202
1.6408367 9.1330929 0.74828202
1.6713192 9.1376972 0.74908924
1.7000166 9.1324015 0.74908924
1.730563 9.1368074 0.74989647
1.7611492 9.1411123 0.75070369
1.8587403 9.1726227 0.7547397
1.8895676 9.1764994 0.75554693
1.916339 9.1607628 0.7547397
1.9492627 9.1741953 0.75635415
1.9822894 9.1875095 0.75796854
2.0998142 9.1715889 0.75877577
2.1308768 9.174655 0.759583
2.1619842 9.1776152 0.76039022
2.1931264 9.1804705 0.76119733
2.22666 9.1929083 0.76281178
2.2555282 9.1858683 0.76281178
2.2883925 9.1880083 0.76361901
2.3196948 9.1904354 0.76442617
2.3510301 9.1927576 0.7652334
2.3824029 9.1949739 0.76604062
2.4163489 9.2067232 0.76765507
2.4468668 9.1986599 0.76765507
2.4783499 9.2005501 0.76846224
2.5098743 9.2023325 0.76926947
2.5440879 9.2136154 0.77088392
2.578397 9.2247725 0.77249831
2.6073637 9.2166271 0.77249831
2.6418076 9.2275515 0.77411276
2.6707826 9.2192068 0.77411276
1.151976 9.1131334 0.26825356
1.2170695 9.1651735 0.27001262
1.2471966 9.1712103 0.27030578
1.2746341 9.1573458 0.27001262
1.3033953 9.1532965 0.27001262
1.3335779 9.159049 0.27030578
1.3608787 9.1449261 0.27001262
1.3940897 9.1702547 0.27089211
1.424492 9.1655817 0.27089211
1.451723 9.1511869 0.27059895
1.4852377 9.1761866 0.27147847
1.5173013 9.1912012 0.27206481
1.5461676 9.1863899 0.27206481
1.5767078 9.1913395 0.272358
1.6072894 9.196188 0.27265117
1.6361709 9.1910934 0.27265117
1.6684196 9.1954527 0.27294433
1.6972985 9.1901665 0.27294433
1.7280011 9.1946144 0.2732375
1.7587534 9.1989584 0.27353069
1.8762038 9.1859264 0.27382386
1.9070768 9.1897745 0.27411702
1.9400489 9.2033024 0.27470338
1.9789118 9.235919 0.27587608
2.0283065 9.1842556 0.27470338
2.0992367 9.2298183 0.27646241
2.1304634 9.2329197 0.27675557
2.1594625 9.2261801 0.27675557
2.1907384 9.2290773 0.27704877
2.2243872 9.2415886 0.2776351
2.2550216 9.2341614 0.2776351
2.2840192 9.2270317 0.2776351
2.3227012 9.2585983 0.27880782
2.3542371 9.2609434 0.27910095
2.3858058 9.2631836 0.27939415
2.4123759 9.2459688 0.27910095
2.4465067 9.2576761 0.27968732
2.4730034 9.2402859 0.27939415
2.5072372 9.25177 0.27998051
2.5442069 9.2727709 0.28086001
2.5759938 9.2743654 0.2811532
2.6078207 9.2758493 0.28144634
2.6440251 9.2863827 0.2820327
1.1388758 9.0762968 0.21145034
1.2366484 9.144206 0.2133072
1.2667375 9.1501789 0.21353932
1.2954762 9.1461544 0.21353932
1.3242068 9.1420393 0.21353932
1.3543819 9.1477242 0.21377142
1.3846056 9.1533098 0.21400353
1.4133536 9.1489153 0.21400353
1.4436476 9.1543036 0.21423563
1.4739847 9.1595945 0.21446775
1.5076039 9.184515 0.21516407
1.5348011 9.1698742 0.21493196
1.5652844 9.174861 0.21516407
1.5958093 9.1797485 0.21539617
1.6263804 9.184535 0.21562828
1.6586027 9.1889296 0.2158604
1.6892658 9.1935062 0.2160925
1.7181386 9.1881542 0.2160925
1.7488656 9.1925325 0.2163246
1.9027287 9.2027607 0.21725303
1.9336823 9.206522 0.21748514
1.9709295 9.2395134 0.21841358
2.0912907 9.2335176 0.21887778
2.1225243 9.2366467 0.21910989
2.1515303 9.2299328 0.21910989
2.1874146 9.2523155 0.21980621
2.2187984 9.2551212 0.22003832
2.25494 9.2772503 0.22073467
2.2745137 9.2312899 0.21980621
2.3099575 9.2430964 0.22027044
2.3438928 9.2551765 0.22073467
2.3754387 9.2574511 0.22096676
2.4070222 9.2596197 0.22119887
2.4386427 9.2616816 0.22143099
2.4677308 9.253973 0.22143099
2.5019982 9.2654791 0.22189519
2.5363624 9.2768612 0.22235942
2.567112 9.2683992 0.22235942
2.5989127 9.2699165 0.22259153
2.6334751 9.280942 0.22305574
1.196777 9.1404915 0.16181505
1.2268167 9.1465969 0.16199131
1.2541821 9.1327925 0.16181505
1.2856575 9.1486092 0.16216759
1.3158156 9.1544218 0.16234386
1.3445673 9.1502428 0.16234386
1.3763919 9.1556206 0.16252014
1.4051471 9.1512518 0.16252014
1.4354435 9.1566687 0.16269639
1.4642017 9.1521139 0.16269639
1.4961703 9.1672049 0.16304894
1.5249169 9.1523304 0.16287267
1.5570132 9.1672087 0.16322522
1.5875108 9.1721239 0.16340147
1.6180596 9.1769371 0.16357774
1.6486496 9.1816492 0.16375402
1.6774852 9.176425 0.16375402
1.7099655 9.1907682 0.16410655
1.7388344 9.1853504 0.16410655
1.7733585 9.2092962 0.16463536
1.8350924 9.2175837 0.16498789
1.8660297 9.2215719 0.16516417
1.8949897 9.2156639 0.16516417
1.92554 9.2093296 0.16516417
1.95654 9.2130156 0.16534044
2.1160164 9.239253 0.16639805
2.1427662 9.2228212 0.16622177
2.1740239 9.2257767 0.16639805
2.2076519 9.238349 0.16675059
2.2366626 9.2313681 0.16675059
2.2704248 9.2437143 0.16710313
2.2994525 9.236536 0.16710313
2.3333576 9.2486553 0.16745567
2.3624003 9.2412786 0.16745567
2.3964367 9.2531691 0.16780819
2.4254932 9.245595 0.16780819
2.4571002 9.247591 0.16798447
2.4887385 9.2494812 0.16816074
2.5204132 9.2512646 0.16833702
2.5564017 9.2621298 0.16868955
2.5908701 9.2733126 0.1690421
2.6210957 9.2752037 0.16921835
2.6529715 9.2765369 0.16939463
1.1863327 9.1019669 0.10847315
1.217584 9.1180162 0.10871051
1.2462219 9.1141462 0.10871051
1.2746458 9.1203117 0.1088292
1.3063058 9.1259308 0.10894787
1.336422 9.1316757 0.10906655
1.3651071 9.1274319 0.10906655
1.3952898 9.1329823 0.10918523
1.4255208 9.1384325 0.10930391
1.4542217 9.1339092 0.10930391
1.4845223 9.1391649 0.1094226
1.5148653 9.1443195 0.10954127
1.5435842 9.1395149 0.10954127
1.5756921 9.1543283 0.10977864
1.6077753 9.1589003 0.10989732
1.63831 9.1636448 0.11001599
1.6670892 9.158453 0.11001599
1.6995066 9.1728334 0.11025335
1.7283144 9.167449 0.11025335
1.7624872 9.181304 0.1104907
1.8837632 9.1878157 0.11084675
1.912617 9.1818523 0.11084675
1.9435323 9.1855783 0.11096542
1.9829103 9.228303 0.11155882
2.0675986 9.1994495 0.11144014
2.0987172 9.2026567 0.11155882
2.1298761 9.205759 0.11167751
2.1610754 9.2087564 0.11179619
2.1946397 9.2213736 0.11203354
2.2283001 9.2338715 0.11227091
2.258909 9.2264309 0.11227091
2.2878823 9.2192898 0.11227091
2.3192773 9.2217522 0.11238958
2.3507106 9.2241087 0.11250826
2.3821864 9.2263584 0.11262694
2.4153068 9.2280798 0.11274562
2.44942 9.2397738 0.11298298
2.4810324 9.2416897 0.11310166
2.5100527 9.2338505 0.11310166
2.539053 9.2259178 0.11310166
2.5734015 9.2371588 0.11333902
2.6051259 9.2386503 0.11345769
2.6368854 9.2400351 0.11357637
1.8907348 9.1996956 -0.37726548
1.9175943 9.1839266 -0.37686241
1.948503 9.1876335 -0.37726548
1.9810597 9.1908903 -0.37766853
1.8742334 9.2110844 -0.4348537
1.8995382 9.1956987 -0.43438959
1.9320735 9.1991253 -0.4348537
1.9630448 9.2027807 -0.43531778
1.7910132 9.1767931 -1.2952309
1.8388715 9.1168079 -1.2883413
1.8675025 9.1109867 -1.2883413
1.9001472 9.1244698 -1.2910972
1.9288019 9.1184549 -1.2910972
1.825713 9.1874876 -0.48881784
1.8506081 9.1621294 -0.48777109
1.8793814 9.156271 -0.48777109
1.911777 9.1597633 -0.48829448
1.9426203 9.1634808 -0.48881784
1.8477979 9.1535187 -0.87897068
1.8725539 9.1281614 -0.87708849
1.905272 9.1417294 -0.87897068
1.936042 9.1454372 -0.87991166
1.8696588 9.1754818 -0.53927505
1.8923899 9.1402369 -0.53754288
1.9272754 9.1635532 -0.53927505
1.9581436 9.1672144 -0.53985238
1.8339047 9.1994772 -0.59750193
1.8667524 9.2132339 -0.59877867
1.8876594 9.1682215 -0.59622526
1.9205264 9.1817846 -0.59750193
1.9509641 9.1753654 -0.59750193
1.8405616 9.2161636 -0.16335452
1.9064851 9.2435913 -0.16405262
1.9252907 9.1886206 -0.16317999
1.9640595 9.2213068 -0.16387808
1.8755887 9.1766338 -0.66361904
1.9064337 9.1804628 -0.66432881
1.9393781 9.1939497 -0.66574836
1.9123238 9.2007732 -0.21725084
1.9412183 9.1947203 -0.21725084
1.9742814 9.208128 -0.21771505
1.850409 9.1779442 -0.71406949
1.877229 9.1623192 -0.71330583
1.9116734 9.1755648 -0.7148332
1.942555 9.1792688 -0.71559691
1.8887559 9.1940975 -0.26759461
1.9114971 9.1587648 -0.26673603
1.9480882 9.1817093 -0.26759461
1.9790348 9.1853142 -0.26788083
1.8009678 9.1736221 -0.75880748
1.8605561 9.1718912 -0.75961983
1.8913779 9.1757622 -0.7604323
1.9222423 9.1795292 -0.76124471
1.848722 9.1796055 -0.32561231
1.8715216 9.1443834 -0.32456532
1.900239 9.1384592 -0.32456532
1.9330797 9.1519976 -0.32526329
1.9639274 9.1556492 -0.32561231
