# .PCD v0.7 - Point Cloud Data file format
VERSION 0.7
FIELDS x y z
SIZE 4 4 4
TYPE F F F
COUNT 1 1 1
WIDTH 160
HEIGHT 1
VIEWPOINT 0 0 0 1 0 0 0
POINTS 160
DATA ascii
-23.423475 6.426898 0.13966921
-23.151579 6.5090418 0.13828692
-23.131016 6.5817394 0.13828692
-23.099453 6.655643 0.13822933
-23.098804 6.7297397 0.1383445
-23.125511 6.816402 0.13863249
-23.151901 6.9032917 0.13892046
-23.224623 7.0088987 0.13949642
-23.356771 7.1244211 0.14041795
-23.210505 6.4868188 0.0041992618
-23.132277 6.543375 0.00418879
-23.111605 6.6160183 0.00418879
-23.090708 6.6885896 0.00418879
-23.107965 6.7723479 0.0041957712
-23.134516 6.8591166 0.0042044981
-23.179903 6.9518685 0.0042167152
-23.272783 7.0594769 0.0042376593
-23.346096 7.1618795 0.0042551123
-22.820015 5.359242 0.93580228
-22.776178 5.5001698 0.93540269
-22.787899 5.5788341 0.9366014
-22.818748 5.6624379 0.93859929
-22.820227 5.7389789 0.93939847
-22.802086 5.8106394 0.93939847
-22.803064 5.8872485 0.94019753
-22.794123 5.9613853 0.94059712
-22.804258 6.0406513 0.94179589
-22.80447 6.1174426 0.94259506
-22.823704 6.1995435 0.9441933
-22.842651 6.2818198 0.94579166
-22.879444 6.3736372 0.94818908
-22.879667 6.4469175 0.9489882
-22.859301 6.5187616 0.9489882
-22.771511 6.5711389 0.94619119
-22.645256 6.6118116 0.94179589
-22.566879 6.6659269 0.93939847
-22.612839 6.7568278 0.94219548
-23.079266 6.9753819 0.96257377
-23.095457 7.0595417 0.96417201
-23.092255 7.1379728 0.96497118
-23.079254 7.2134643 0.96537077
-23.046951 7.2829242 0.96497118
-23.014441 7.3522463 0.9645716
-23.010244 7.4306607 0.96537077
-23.197077 6.4967318 -0.11332792
-23.138069 6.5586677 -0.11313944
-23.107738 6.6285644 -0.11309232
-23.096403 6.7039185 -0.11313944
-23.0956 6.7780495 -0.11323368
-23.159266 6.8802371 -0.11365777
-23.196215 6.9661827 -0.11394051
-23.269896 7.0680881 -0.11441172
-23.390959 7.1852164 -0.11511856
-23.255674 6.5050225 -0.2482654
-23.158157 6.5562453 -0.24744162
-23.098999 6.6179385 -0.24702975
-23.097303 6.6960435 -0.2472357
-23.104935 6.7770252 -0.2475446
-23.13146 6.8638091 -0.24805947
-23.176819 6.9565854 -0.24878027
-23.250526 7.0584288 -0.24981
-23.314262 7.1578727 -0.25073674
-22.993439 6.1409883 0.69687289
-22.964386 6.2105842 0.69657975
-22.944759 6.2827015 0.69657975
-22.953808 6.3627539 0.69745922
-22.96258 6.4429317 0.69833875
-22.961458 6.5204926 0.69892514
-22.939709 6.5966005 0.69892514
-22.947664 6.6770091 0.6998046
-23.014063 6.7704358 0.70244318
-23.078911 6.868341 0.70508176
-23.152939 6.9696054 0.70801347
-23.263577 7.0870905 0.71211791
-23.007572 6.2961416 0.55288112
-22.978045 6.3657198 0.55264902
-22.986811 6.4459748 0.55334538
-23.004917 6.5290699 0.55427378
-23.032339 6.615108 0.55543435
-23.049845 6.6985869 0.55636275
-23.067053 6.782248 0.55729121
-23.131876 6.8803234 0.55938017
-23.205881 6.9817581 0.56170124
-23.355995 7.1069965 0.56587917
-23.157385 6.2509089 0.42216453
-23.067434 6.464817 0.42163575
-23.075867 6.5454378 0.42216453
-23.055187 6.6179032 0.42216453
-23.083462 6.7002187 0.4230459
-23.101854 6.7799435 0.42375097
-23.136749 6.8736043 0.42480859
-23.239521 6.9836698 0.42710009
-23.341824 7.0944543 0.42939156
-23.08814 6.5450287 0.28435633
-23.077074 6.6202927 0.284475
-23.08497 6.7011251 0.28483105
-23.082989 6.7792578 0.28506839
-23.099918 6.8631392 0.28554311
-23.097393 6.9414392 0.28578049
-23.238102 7.063437 0.28779805
-23.359156 7.1805129 0.28957823
-23.532585 6.6337643 -0.98467904
-23.182055 6.6969271 -0.97178102
-23.104532 6.7488832 -0.96936268
-23.0928 6.8242612 -0.96976572
-23.119116 6.9110765 -0.97178102
-23.163023 7.0079451 -0.97460252
-23.218575 7.0999966 -0.97782701
-23.291618 7.2023983 -0.98185754
-23.343901 7.3034482 -0.98508203
-23.378006 7.394814 -0.98750049
-23.440319 7.4955955 -0.99112803
-23.389988 6.6382666 -1.1277422
-23.176992 6.6565838 -1.1184604
-23.079224 6.7070646 -1.1147476
-23.058039 6.7795401 -1.1147476
-23.113228 6.8747201 -1.1184604
-23.187172 6.9760733 -1.1231012
-23.241598 7.0721378 -1.126814
-23.27655 7.1627455 -1.1295986
-23.330242 7.2595701 -1.1333114
-23.354963 7.3478174 -1.1356318
-23.369844 7.4332585 -1.1374882
-23.254795 6.5730839 -0.42112654
-23.175192 6.6336694 -0.42007941
-23.125425 6.698102 -0.41955584
-23.115046 6.7694941 -0.41973037
-23.141602 6.8562722 -0.42060301
-23.186996 6.9490142 -0.42182466
-23.202099 7.037467 -0.42252275
-23.305397 7.1443448 -0.42479157
-23.357981 7.2452698 -0.42618775
-23.20961 6.6133718 -0.55937451
-23.140686 6.6724119 -0.55821395
-23.129208 6.7478738 -0.55844605
-23.117483 6.8233352 -0.55867815
-23.134251 6.907362 -0.55960655
-23.179432 7.0002365 -0.56123137
-23.272062 7.1080542 -0.56401658
-23.326035 7.20473 -0.56587344
-23.389174 7.3047891 -0.56796241
-23.428495 6.5614977 -0.69545984
-23.204248 6.6561913 -0.69002205
-23.106426 6.7067633 -0.68773246
-23.067245 6.76966 -0.68716013
-23.075806 6.8466029 -0.68801868
-23.12956 6.9460945 -0.69030827
-23.155447 7.0332503 -0.69173926
-23.247896 7.1411939 -0.69517362
-23.301714 7.2379179 -0.69746321
-23.35387 7.3391304 -0.69975281
-23.172644 6.6389914 -0.84037989
-23.06529 6.6866908 -0.83723891
-23.063349 6.7647524 -0.83793694
-23.051561 6.8400164 -0.83828586
-23.106531 6.9354067 -0.84107786
-23.170691 7.0341072 -0.84421879
-23.215349 7.1274157 -0.84666181
-23.307369 7.2358937 -0.85084969
-23.32266 7.3210645 -0.85224569
