# .PCD v0.7 - Point Cloud Data file format
VERSION 0.7
FIELDS x y z
SIZE 4 4 4
TYPE F F F
COUNT 1 1 1
WIDTH 1046
HEIGHT 1
VIEWPOINT 0 0 0 1 0 0 0
POINTS 1046
DATA ascii
-15.366779 20.723379 0.14836614
-15.266 20.723255 0.14802055
-15.189009 20.754974 0.14790536
-15.082553 20.745981 0.1475022
-15.005593 20.77705 0.14738701
-14.887764 20.750977 0.14686865
-14.810891 20.781361 0.14675346
-14.722408 20.795147 0.14652307
-14.624603 20.802959 0.14623509
-14.530544 20.807812 0.14594713
-14.447996 20.828714 0.14577433
-14.354115 20.832834 0.14548635
-14.271645 20.853075 0.14531356
-14.172323 20.848194 0.144968
-14.067571 20.834612 0.14456484
-13.985335 20.85379 0.14439204
-13.892021 20.856016 0.14410405
-13.815397 20.882879 0.14398888
-13.454437 20.903502 0.14295214
-13.091508 20.920658 0.14191543
-13.004597 20.927715 0.14168505
-12.928283 20.951448 0.14156985
-12.836263 20.949335 0.14128187
-12.754789 20.963932 0.14110909
-12.668173 20.969667 0.14087871
-12.576506 20.96649 0.14059073
-12.496674 20.990896 0.14047554
-12.410309 20.995623 0.14024517
-12.334159 21.017262 0.14012997
-12.237855 21.00407 0.1397844
-12.151771 21.007795 0.13955401
-12.080733 21.037195 0.13949642
-11.999717 21.048986 0.13932362
-11.90397 21.03437 0.13897805
-11.818229 21.036798 0.13874768
-11.742339 21.056355 0.13863249
-11.671283 21.084394 0.13857488
-11.609807 21.129719 0.13863249
-11.514627 21.113422 0.13828692
-11.453004 21.158281 0.1383445
-11.367536 21.158928 0.13811412
-11.30101 21.194534 0.13811412
-11.257763 21.274122 0.1384021
-11.168559 21.275923 0.13817172
-11.046195 21.204496 0.13748057
-11.026902 21.495892 0.13892046
-11.022856 21.655178 0.1397268
-10.963787 21.70755 0.13984199
-10.913468 21.777643 0.14007238
-11.473022 23.074207 0.14819334
-11.427034 23.163937 0.14853892
-11.336613 23.163801 0.14830855
-11.24631 23.163321 0.14807816
-11.152077 23.164452 0.14784777
-11.083557 23.208397 0.14790536
-10.993462 23.206955 0.14767498
-10.920497 23.241379 0.14767498
-10.830527 23.239319 0.14744459
-10.75313 23.253201 0.14732942
-10.659283 23.252375 0.14709903
-10.565481 23.240234 0.14681105
-10.488303 23.264198 0.14675346
-10.407001 23.278774 0.14663826
-10.321641 23.294874 0.14652307
-10.232307 23.290571 0.14629269
-10.143108 23.285931 0.1460623
-10.061968 23.299326 0.14594713
-9.9769115 23.303244 0.14577433
-15.228628 20.726877 0.0044820053
-15.128063 20.726152 0.0044715335
-15.033519 20.733103 0.0044628065
-14.94493 20.747772 0.0044558253
-14.850574 20.753963 0.0044470988
-14.762126 20.767912 0.0044401172
-14.673732 20.781515 0.004433136
-14.591146 20.80295 0.0044279001
-14.502849 20.81587 0.0044209189
-14.397546 20.803772 0.0044087018
-14.309452 20.815939 0.0044017201
-14.204513 20.802984 0.004389503
-14.127857 20.830956 0.004386012
-14.039998 20.842062 0.0043790308
-13.954125 20.863571 0.0043737949
-13.844243 20.840672 0.0043598325
-13.756667 20.850676 0.0043528508
-13.488975 20.870226 0.0043301615
-13.238184 20.91194 0.0043127085
-13.140488 20.90263 0.0043022363
-13.055214 20.920641 0.0042970004
-12.957815 20.910555 0.0042865286
-12.876337 20.92561 0.0042812922
-12.789673 20.931829 0.004274311
-12.70829 20.946257 0.0042690751
-12.621782 20.951815 0.0042620939
-12.530225 20.948458 0.004253367
-12.449035 20.961926 0.0042481315
-12.362796 20.966478 0.0042411499
-12.286764 20.987951 0.0042376593
-12.185585 20.965933 0.0042254417
-12.109665 20.986788 0.0042219511
-12.025094 21.000797 0.0042167152
-11.934342 20.995007 0.0042079883
-11.8585 21.014978 0.0042044981
-11.777754 21.025957 0.0041992618
-11.697062 21.036634 0.0041940259
-11.60675 21.029507 0.0041852994
-11.526213 21.039555 0.004180063
-11.4505 21.058094 0.0041765729
-11.36529 21.058762 0.0041695912
-11.280184 21.059107 0.00416261
-11.199887 21.067949 0.0041573741
-11.119647 21.076498 0.0041521378
-11.044097 21.093611 0.0041486472
-11.02389 21.216934 0.0041661006
-11.017618 21.377815 0.0041905353
-11.023262 21.554771 0.0042184605
-11.005279 21.687382 0.0042376593
-10.93259 21.712919 0.0042359135
-10.962663 21.943956 0.004274311
-11.049125 22.29187 0.0043353979
-11.045243 22.461071 0.0043615778
-11.066713 22.684391 0.0043982295
-11.069466 22.872061 0.0044279001
-11.084128 23.087017 0.0044628065
-11.046203 23.204903 0.0044785147
-10.960433 23.212366 0.0044732788
-10.874732 23.219515 0.0044680424
-10.784875 23.217291 0.0044610612
-10.703515 23.232891 0.0044575706
-10.60969 23.220928 0.0044488441
-10.524305 23.226818 0.0044436082
-10.447182 23.250647 0.0044418625
-10.365949 23.265085 0.0044383723
-10.272595 23.251802 0.0044296454
-10.191474 23.26564 0.0044261548
-10.106377 23.270029 0.0044209189
-10.021358 23.274109 0.004415683
-9.9403353 23.287085 0.0044121919
-13.580086 22.95167 1.0648646
-13.497792 22.976988 1.0640655
-13.400383 22.976116 1.0620676
-13.308112 22.983509 1.0604693
-13.220911 22.999212 1.0592706
-13.123836 22.997238 1.0572728
-13.036757 23.01227 1.056074
-12.944809 23.018272 1.0544758
-12.838354 22.997744 1.0516788
-12.7475 23.013966 1.05048
-12.693603 23.077955 1.0516788
-12.711972 23.284374 1.0592706
-12.658473 23.370335 1.0612684
-12.525496 23.475857 1.0624672
-12.432982 23.479765 1.0608689
-12.354513 23.509861 1.0604693
-12.252881 23.495396 1.0580719
-12.17901 23.533772 1.0580719
-12.054824 23.474134 1.0536766
-11.976486 23.502985 1.053277
-10.898333 21.562614 0.9645716
-10.884261 21.703941 0.96936649
-11.153122 23.130569 1.0253068
-11.076356 23.167427 1.0253068
-10.990683 23.17502 1.0241081
-10.905066 23.182308 1.0229094
-10.815294 23.180229 1.021311
-10.734033 23.195951 1.020512
-10.644441 23.193233 1.0189136
-10.559115 23.199272 1.017715
-10.477961 23.214113 1.0169158
-10.392743 23.219553 1.015717
-10.303536 23.215553 1.0141188
-10.222509 23.229513 1.0133196
-10.141491 23.243198 1.0125206
-10.060493 23.256599 1.0117214
-9.9755678 23.26054 1.0105226
-15.283279 20.67383 -0.12096166
-15.206415 20.705624 -0.12086741
-15.129507 20.737135 -0.12077317
-15.023207 20.727884 -0.12044331
-14.934647 20.742514 -0.12025482
-14.840327 20.748657 -0.12001922
-14.757693 20.770723 -0.11987785
-14.663542 20.776131 -0.11964224
-14.575237 20.789343 -0.11945376
-14.486999 20.802202 -0.11926527
-14.387443 20.798267 -0.11898254
-14.295748 20.812891 -0.11879405
-14.211387 20.822176 -0.11860557
-14.11224 20.817051 -0.11832283
-14.026381 20.838848 -0.11818147
-13.927498 20.83293 -0.11789873
-13.850923 20.859919 -0.1178045
-13.757793 20.861589 -0.11756888
-13.230178 20.916689 -0.11643796
-13.127175 20.898869 -0.1161081
-13.050868 20.923038 -0.11601386
-12.958751 20.921425 -0.11577825
-12.872004 20.927961 -0.11558977
-12.795774 20.951227 -0.11549553
-12.712809 20.954901 -0.11530703
-12.612303 20.945541 -0.11502431
-12.525911 20.950729 -0.11483581
-12.444722 20.964178 -0.11469445
-12.368644 20.985941 -0.11460021
-12.277407 20.981537 -0.11436459
-12.191338 20.985418 -0.11417612
-12.110367 20.997623 -0.11403474
-12.024466 21.000854 -0.11384626
-11.938669 21.003748 -0.11365777
-11.852968 21.006315 -0.11346929
-11.772261 21.017273 -0.11332792
-11.691601 21.027929 -0.11318655
-11.601323 21.020782 -0.11295094
-11.530427 21.048353 -0.11290383
-11.431916 21.033756 -0.1126211
-11.365777 21.069569 -0.1126211
-11.280654 21.069902 -0.11243261
-11.195637 21.069916 -0.11224412
-11.115399 21.078445 -0.11210275
-11.049122 21.113264 -0.11210275
-11.028823 21.236618 -0.11257397
-11.035333 21.413391 -0.11332792
-11.03174 21.572603 -0.11398762
-11.022727 21.723087 -0.11460021
-10.937151 21.732719 -0.11445884
-11.034083 22.098011 -0.11620235
-11.053378 22.311781 -0.11714479
-11.067022 22.51692 -0.1180401
-11.066345 22.695393 -0.11879405
-11.069003 22.883087 -0.11959512
-11.040318 23.007908 -0.12006634
-10.967978 23.04248 -0.12006634
-10.874194 23.031607 -0.11983074
-10.78906 23.038488 -0.11968937
-10.71242 23.063198 -0.11964224
-10.635725 23.087656 -0.11959512
-10.538339 23.077316 -0.11935952
-10.457541 23.092089 -0.11926527
-10.372652 23.097462 -0.1191239
-10.28784 23.102528 -0.11898254
-10.203097 23.107288 -0.11884117
-10.12644 23.130068 -0.11879405
-10.049747 23.152592 -0.11874693
-9.9532452 23.128937 -0.11846419
-9.8883839 23.178488 -0.11855844
-15.286621 20.657181 -0.26422608
-15.203882 20.680931 -0.26391715
-15.121151 20.704361 -0.26360822
-15.038418 20.727482 -0.26329932
-14.922851 20.712324 -0.26247555
-14.855512 20.748377 -0.26237255
-14.767082 20.762342 -0.26196066
-14.672938 20.767796 -0.26144582
-14.578912 20.772858 -0.26093096
-14.496427 20.793945 -0.26062205
-14.393253 20.792566 -0.26000422
-14.305208 20.804714 -0.25959232
-14.205954 20.800001 -0.25897449
-14.118088 20.811422 -0.25856259
-14.019125 20.80591 -0.25794476
-13.948129 20.841539 -0.2578418
-13.849386 20.835281 -0.25722396
-13.756322 20.83696 -0.25670913
-13.674352 20.854982 -0.2564002
-13.401562 20.865128 -0.2549586
-13.229109 20.892088 -0.25423777
-13.136802 20.891216 -0.25372291
-13.055224 20.906935 -0.25341401
-12.973673 20.92235 -0.2531051
-12.890568 20.926689 -0.25269321
-12.784601 20.909595 -0.25197241
-12.708476 20.932558 -0.25176644
-12.616852 20.929554 -0.25125161
-12.5305 20.934763 -0.25083971
-12.449353 20.948235 -0.25053081
-12.368238 20.961403 -0.25022188
-12.282119 20.965639 -0.24981
-12.196088 20.969542 -0.2493981
-12.11016 20.97311 -0.24898621
-12.034266 20.9937 -0.24878027
-11.948481 20.996634 -0.24836837
-11.867707 21.007948 -0.24805947
-11.788201 21.029739 -0.24785352
-11.706307 21.029669 -0.24744162
-11.616015 21.022573 -0.24692677
-11.531822 21.03467 -0.24661785
-11.456125 21.053228 -0.24641192
-11.370932 21.053917 -0.24600002
-11.285841 21.054281 -0.24558814
-11.205561 21.063143 -0.24527922
-11.120669 21.062866 -0.24486732
-11.049802 21.08884 -0.24476436
-11.001942 21.158941 -0.24517624
-11.008742 21.3356 -0.2468238
-11.024449 21.541136 -0.24878027
-11.024609 21.709412 -0.25032485
-10.938358 21.708218 -0.24991295
-10.96844 21.939262 -0.25217834
-11.041584 22.260302 -0.25547343
-11.055451 22.465363 -0.25742993
-11.06332 22.650827 -0.25918043
-11.075281 22.867397 -0.26123986
-11.046668 22.992222 -0.26226959
-10.961484 22.999727 -0.26196066
-10.880629 23.01597 -0.26175475
-10.791297 23.013821 -0.26134285
-10.71051 23.029474 -0.26113689
-10.62974 23.044846 -0.26093096
-10.540661 23.041748 -0.26051906
-10.45583 23.047428 -0.26021016
-10.366974 23.043682 -0.25979826
-10.278237 23.039606 -0.25938636
-10.201766 23.062637 -0.25928342
-10.117216 23.067099 -0.25897449
-10.032744 23.071255 -0.25866556
-9.9482708 23.086033 -0.25845963
-9.8678389 23.09878 -0.25825369
-13.525481 23.018496 0.78189319
-13.427909 23.017708 0.78042728
-13.335482 23.025187 0.77925462
-13.248131 23.040972 0.77837509
-13.150892 23.039082 0.77690923
-13.053802 23.036802 0.77544332
-12.966656 23.051567 0.77456385
-12.869801 23.048555 0.77309793
-12.777935 23.053909 0.77192527
-12.690989 23.067667 0.77104574
-12.604075 23.081108 0.77016622
-12.512445 23.085442 0.76899356
-12.41617 23.080631 0.7675277
-12.338892 23.110704 0.7672345
-12.252177 23.122862 0.76635498
-12.156207 23.117008 0.76488912
-12.065606 23.130608 0.76400959
-11.988285 23.159521 0.7637164
-11.888052 23.143728 0.76195741
-11.792582 23.136436 0.76049149
-10.97518 21.701757 0.71211791
-10.906951 21.736128 0.71211791
-11.551718 23.201817 0.75902563
-11.452201 23.184225 0.75726658
-11.370504 23.202141 0.75668025
-11.253835 23.14786 0.75374848
-11.168325 23.167046 0.75316215
-11.078501 23.176903 0.75228268
-11.0054 23.20064 0.75198948
-10.923946 23.21701 0.75140309
-10.834035 23.214989 0.75023043
-10.752651 23.230768 0.7496441
-10.662925 23.228102 0.74847138
-10.581615 23.243292 0.74788505
-10.500309 23.258204 0.74729872
-10.410847 23.254585 0.746126
-10.325562 23.27071 0.74553967
-10.236291 23.266441 0.74436694
-10.159151 23.289322 0.74407381
-10.070054 23.284431 0.74290115
-13.98609 22.934553 0.62274563
-13.903608 22.961277 0.62228143
-13.8108 22.970572 0.62135297
-13.723189 22.988096 0.62065667
-13.620317 22.979496 0.61926401
-13.522699 22.979095 0.61810344
-13.440357 23.004198 0.61763924
-13.347951 23.011723 0.61671084
-13.241639 23.003876 0.61531818
-13.154425 23.019321 0.61462182
-13.067245 23.034445 0.61392552
-12.965376 23.023123 0.61253285
-12.873469 23.028833 0.61160439
-12.771948 23.016718 0.61021179
-12.699579 23.056726 0.61021179
-12.607893 23.061426 0.60928339
-12.525846 23.083345 0.60881913
-12.43904 23.096178 0.60812283
-12.338142 23.082243 0.60673016
-12.246819 23.085567 0.6058017
-12.160263 23.097389 0.6051054
-12.073747 23.108898 0.6044091
-11.974045 23.104431 0.60324854
-11.887685 23.115263 0.60255224
-11.805914 23.134687 0.60208797
-10.969823 21.664396 0.5628618
-10.915172 21.725552 0.5635581
-11.542749 23.155457 0.59976697
-11.461085 23.173681 0.59930271
-11.361796 23.155725 0.59791011
-11.275868 23.164337 0.59721375
-11.17695 23.145636 0.59582114
-11.095815 23.173557 0.59558898
-11.014381 23.190239 0.59512478
-10.932947 23.20664 0.59466052
-10.851524 23.222757 0.59419632
-10.757489 23.211384 0.59303582
-10.67199 23.217813 0.59233946
-10.582404 23.214842 0.59141105
-10.501185 23.229753 0.59094685
-10.415882 23.235264 0.59025055
-10.326592 23.231329 0.58932209
-10.257587 23.272806 0.58955419
-10.160402 23.249952 0.58816153
-10.079357 23.263412 0.58769733
-9.998333 23.27659 0.58723313
-14.018415 22.95356 0.47345886
-13.91513 22.94619 0.47240123
-13.818337 22.957943 0.47169617
-13.73589 22.984074 0.47134364
-13.633004 22.975521 0.47028604
-13.540461 22.983774 0.46958095
-13.442954 22.983044 0.4686996
-13.35562 22.999224 0.46817079
-13.258338 22.997755 0.46728945
-13.176087 23.02194 0.46693692
-13.093822 23.045832 0.46658435
-12.991886 23.034601 0.46552676
-12.885273 23.014229 0.46429288
-12.798335 23.028378 0.46376404
-12.7211 23.059715 0.46358779
-12.653392 23.108337 0.46376404
-12.557601 23.115026 0.46305895
-12.475435 23.136761 0.46270645
-12.374381 23.122946 0.46164882
-12.282924 23.126383 0.46094376
-12.205544 23.156013 0.46076748
-12.118838 23.167662 0.46023867
-12.018357 23.152376 0.45918104
-11.927254 23.154463 0.45847601
-11.849906 23.182915 0.45829973
-10.918254 21.704731 0.4276289
-11.573249 23.188238 0.45618448
-11.491467 23.206562 0.45583194
-11.39206 23.188704 0.45477432
-11.284112 23.152475 0.45336416
-11.202621 23.169806 0.45301163
-11.112479 23.168825 0.45230657
-11.035345 23.194592 0.45213029
-10.94962 23.202019 0.45160148
-10.859725 23.200081 0.45089641
-10.778364 23.215946 0.45054388
-10.692835 23.222445 0.45001504
-10.595012 23.212296 0.44913372
-10.513794 23.227247 0.44878116
-10.436674 23.251041 0.44860491
-10.351386 23.25631 0.4480761
-10.262124 23.252125 0.44737101
-10.181012 23.265928 0.44701847
-10.09593 23.270283 0.44648969
-10.010927 23.274328 0.44596088
-9.925993 23.27807 0.44543204
-15.563536 20.636957 0.30631205
-15.462665 20.637728 0.30559999
-15.379844 20.662136 0.30524394
-15.297028 20.686226 0.30488789
-15.208289 20.701944 0.30441317
-15.113714 20.709227 0.30381978
-15.019239 20.716124 0.30322638
-14.930718 20.730745 0.30275166
-14.84807 20.753145 0.30239561
-14.748051 20.750782 0.30168355
-14.76927 20.919558 0.30346376
-13.682144 22.715391 0.31426358
-13.651755 22.826927 0.31521302
-13.579978 22.869701 0.31521302
-13.533442 22.955326 0.31580642
-13.365324 22.833746 0.31355152
-13.338721 22.953442 0.31461963
-13.006803 22.544794 0.30844828
-13.010427 22.715714 0.31022847
-13.042754 22.939035 0.31272075
-13.000101 23.032154 0.31343284
-12.873938 22.976912 0.31212735
-12.791976 22.999762 0.31188998
-12.714823 23.031082 0.3117713
-12.638378 23.07312 0.3117713
-12.541962 23.068781 0.31117791
-12.455183 23.081667 0.31082186
-12.368455 23.094234 0.31046584
-12.291147 23.124147 0.31034717
-12.195125 23.11842 0.30975375
-12.10389 23.12118 0.30927905
-12.02198 23.14134 0.30904168
-11.940057 23.161219 0.3088043
-11.84903 23.163002 0.30832961
-11.745019 23.148659 0.30761755
-10.908186 21.66695 0.287442
-11.48195 23.168718 0.30643073
-11.409103 23.204678 0.30643073
-11.300754 23.157541 0.30536261
-11.193422 23.131876 0.30453187
-11.116374 23.157909 0.30441317
-11.034969 23.174662 0.30417582
-10.949306 23.182085 0.30381978
-10.859461 23.180149 0.30334505
-10.778164 23.196011 0.30310771
-10.696869 23.211594 0.30287033
-10.60728 23.208702 0.30239561
-10.52606 23.223696 0.30215827
-10.436663 23.220163 0.30168355
-10.355522 23.23457 0.3014462
-10.270361 23.239546 0.30109015
-10.189276 23.25338 0.30085281
-10.096264 23.239412 0.30025938
-10.01519 23.26358 0.30014071
-9.9263668 23.258139 0.29966599
-15.097216 20.796589 -1.0350617
-15.002572 20.803402 -1.0330464
-14.925503 20.834187 -1.0322403
-14.819407 20.823997 -1.0294188
-14.736609 20.845978 -1.0282097
-14.638685 20.853848 -1.0261943
-14.55023 20.866957 -1.0245821
-14.461841 20.879711 -1.0229698
-14.356515 20.867428 -1.0201484
-14.268332 20.879431 -1.0185361
-14.174598 20.882826 -1.0165209
-14.086576 20.894119 -1.0149087
-13.998623 20.905062 -1.0132964
-13.916269 20.923983 -1.0120871
-13.817414 20.917582 -1.0096688
-13.718733 20.91077 -1.0072504
-13.636604 20.928652 -1.0060413
-13.554495 20.94623 -1.0048321
-13.217331 21.007292 -0.9995923
-13.103599 20.97246 -0.99596471
-13.006032 20.962585 -0.99354637
-12.934866 20.994837 -0.99314332
-12.842767 20.992758 -0.99112803
-12.761181 21.007385 -0.98991883
-12.679636 21.021706 -0.98870963
-12.592986 21.027155 -0.98709738
-12.507872 21.043032 -0.98588818
-12.416297 21.039206 -0.98387289
-12.340035 21.060867 -0.9830668
-12.258728 21.073624 -0.98185754
-12.157474 21.05147 -0.97903615
-12.076361 21.063562 -0.97782701
-12.000241 21.08403 -0.97702086
-11.924108 21.104229 -0.97621471
-11.828412 21.089304 -0.97379637
-11.742646 21.091444 -0.97218412
-11.656991 21.093254 -0.97057188
-11.576241 21.103495 -0.96936268
-11.500328 21.122208 -0.96855652
-11.41015 21.114288 -0.96654123
-11.334314 21.13242 -0.96573514
-11.249078 21.132648 -0.96412289
-11.168627 21.141382 -0.96291369
-11.079898 21.142906 -0.96130151
-10.999586 21.151018 -0.96009231
-10.937666 21.194349 -0.96049535
-10.943933 21.370886 -0.96694434
-10.885795 21.422976 -0.96775049
-10.809441 21.439226 -0.96694434
-10.737558 21.464146 -0.96654123
-10.670077 21.49777 -0.96654123
-10.611317 21.549112 -0.96734738
-10.894608 22.300486 -0.9995923
-10.997172 22.883659 -1.0225668
-10.985453 23.044353 -1.0282097
-9.7229776 21.427721 -0.94759738
-9.6515131 21.449047 -0.94719434
-9.6166677 21.552254 -0.95041883
-9.4452124 21.726036 -0.95404637
-9.3689995 21.737249 -0.95324022
-9.3045893 21.775764 -0.95364332
-9.2010422 21.722092 -0.95001572
-14.969107 20.819555 -1.1894664
-14.857172 20.801455 -1.1857537
-14.768629 20.815441 -1.1838974
-14.685894 20.837242 -1.182505
-14.591714 20.842361 -1.1801846
-14.497647 20.847094 -1.1778641
-14.398011 20.843227 -1.1750796
-14.309853 20.85541 -1.1732231
-14.216129 20.858995 -1.1709027
-14.13373 20.878736 -1.1695105
-14.045768 20.889881 -1.1676542
-13.943136 20.886499 -1.1648695
-13.866411 20.913548 -1.1639414
-13.77866 20.923637 -1.1620849
-13.674583 20.908302 -1.1588364
-13.587061 20.917656 -1.15698
-13.145321 20.950804 -1.1472341
-13.059927 20.968845 -1.1458417
-12.967715 20.967293 -1.1435213
-12.880866 20.973885 -1.141665
-12.809711 21.005716 -1.1412009
-12.712605 20.994591 -1.1384163
-12.620851 20.991619 -1.1360959
-12.549717 21.022591 -1.1356318
-12.458144 21.018948 -1.1333114
-12.366712 21.01494 -1.1309909
-12.285515 21.027813 -1.1295986
-12.204351 21.040384 -1.1282064
-12.123237 21.05265 -1.126814
-12.043444 21.075394 -1.1258858
-11.942669 21.052305 -1.1226372
-11.861763 21.063612 -1.121245
-11.785785 21.083334 -1.1203167
-11.700099 21.085321 -1.1184604
-11.619342 21.095724 -1.1170682
-11.533837 21.097065 -1.1152117
-11.443681 21.089296 -1.1128913
-11.367892 21.107557 -1.1119632
-11.28269 21.107927 -1.1101068
-11.202272 21.116798 -1.1087145
-11.112609 21.107693 -1.1063941
-11.041613 21.133648 -1.10593
-10.979767 21.177097 -1.1063941
-10.968879 21.328871 -1.1124272
-10.929062 21.416609 -1.1152117
-10.866241 21.459749 -1.1156758
-10.821195 21.53841 -1.1179963
-10.79805 21.661695 -1.1226372
-10.521782 21.274689 -1.100825
-10.410881 21.217964 -1.096184
-10.361666 21.286491 -1.0980403
-10.273015 21.273964 -1.0957199
-10.106879 21.62936 -1.1073222
-9.954855 21.47975 -1.0980403
-9.7830133 21.284016 -1.0864381
-9.6912317 21.260113 -1.0836536
-9.6285114 21.299553 -1.0841177
-9.704587 21.648722 -1.1003609
-9.5878325 21.569571 -1.0947918
-9.4515171 21.444199 -1.0869023
-9.4121103 21.537855 -1.0901508
-9.4397259 21.787292 -1.101289
-9.2884274 21.6241 -1.0915431
-9.2517662 21.726698 -1.0952559
-14.50929 17.908298 -1.2058203
-14.509314 18.023806 -1.2105306
-14.521224 18.155092 -1.2162876
-14.401994 18.122433 -1.211054
-14.388302 18.222458 -1.2147175
-14.318659 18.251852 -1.2136707
-14.298079 18.344009 -1.2168109
-14.31986 18.491484 -1.2236146
-14.337599 18.641783 -1.2304183
-14.272902 18.678795 -1.229895
-14.18396 18.683771 -1.2272781
-14.287539 18.943518 -1.2414088
-14.363027 19.161631 -1.2529228
-14.400767 19.345341 -1.2618198
-14.322107 19.3664 -1.2602499
-14.255285 19.40325 -1.2597264
-14.276669 19.560873 -1.2670535
-14.185843 19.565201 -1.2644367
-14.124304 19.609673 -1.2644367
-14.085873 19.686434 -1.26653
-14.052878 19.771292 -1.2691469
-13.938865 19.741917 -1.2644367
-13.7621 19.622086 -1.2539694
-13.865919 19.902855 -1.2691469
-13.774911 19.905258 -1.26653
-13.714486 19.959057 -1.2670535
-13.779077 20.18111 -1.2785674
-13.777253 20.315218 -1.2843243
-13.776734 20.460201 -1.2906047
-13.717942 20.511681 -1.291128
-13.697632 20.621227 -1.2953149
-13.621785 20.647484 -1.2942681
-13.567795 20.706884 -1.2953149
-13.540802 20.807999 -1.2989784
-13.497041 20.883987 -1.3010718
-13.155497 20.935869 -1.2937448
-13.06852 20.943203 -1.2916514
-12.96584 20.924732 -1.2879878
-12.863414 20.905823 -1.2843243
-12.79767 20.946133 -1.2843243
-12.714744 20.949862 -1.282231
-12.634896 20.974802 -1.2811842
-12.543316 20.971537 -1.2785674
-12.456973 20.976494 -1.276474
-12.3758 20.989714 -1.2749038
-12.289618 20.994019 -1.2728105
-12.198519 20.989349 -1.2701936
-12.117546 21.001621 -1.2686236
-12.026695 20.996254 -1.2660067
-11.950801 21.016575 -1.2649601
-11.869993 21.027922 -1.2633899
-11.789227 21.038973 -1.2618198
-11.708516 21.049725 -1.2602499
-11.62302 21.051434 -1.2581563
-11.537636 21.052813 -1.256063
-11.448679 21.055862 -1.2539694
-11.372993 21.074146 -1.2529228
-11.283155 21.065758 -1.250306
-11.202862 21.074644 -1.2487359
-11.12262 21.083239 -1.2471658
-11.04707 21.10038 -1.2461191
-10.999138 21.170431 -1.2482126
-11.005786 21.346903 -1.2565863
-10.952308 21.408045 -1.2581563
-10.898561 21.469061 -1.2597264
-10.836287 21.522924 -1.2607732
-10.706144 21.431787 -1.2534461
-10.550084 21.286356 -1.2429789
-10.566868 21.48967 -1.2529228
-10.582483 21.693296 -1.2628666
-10.3664 21.420797 -1.2450724
-10.29905 21.453259 -1.2450724
-10.145747 21.30518 -1.2346052
-10.074497 21.327919 -1.2340819
-9.9693213 21.278072 -1.2293715
-9.7299042 20.937971 -1.2079139
-9.6557217 20.950293 -1.2068671
-9.6982222 21.227453 -1.2209978
-9.6232424 21.239624 -1.2199512
-9.6178513 21.406391 -1.2278014
-9.7334032 21.847004 -1.2513527
-9.6082373 21.749582 -1.2440256
-9.3555841 21.358873 -1.2199512
-9.2407122 21.278236 -1.2136707
-9.1896105 21.343855 -1.2157643
-9.1617107 21.464468 -1.2209978
-12.755344 19.415817 -1.341259
-12.654808 19.529095 -1.3435684
-12.609598 19.593943 -1.3453007
-12.45817 19.773216 -1.3493423
-12.417166 19.846115 -1.3516519
-12.381086 19.927433 -1.3545388
-12.327148 19.972576 -1.3551161
-12.260848 20.013346 -1.3551161
-12.260155 20.154129 -1.3620448
-12.109061 20.047255 -1.3522292
-12.004961 20.016695 -1.3476102
-11.982862 20.122942 -1.3522292
-11.884035 20.100323 -1.3481876
-11.861241 20.206446 -1.3528067
-11.777606 20.209101 -1.3504971
-11.714056 20.246004 -1.3504971
-11.68519 20.343307 -1.3545388
-11.626163 20.388594 -1.3551161
-11.498147 20.312059 -1.3476102
-11.587115 20.628647 -1.3660865
-11.525859 20.662935 -1.3660865
-11.52373 20.812595 -1.3735924
-11.41621 20.780687 -1.3689733
-11.365199 20.842751 -1.3707055
-11.299666 20.878349 -1.3707055
-11.234016 20.913748 -1.3707055
-11.224596 21.054663 -1.377634
-11.153727 21.080999 -1.3770567
-11.073528 21.089415 -1.3753246
-10.98877 21.08868 -1.3730149
-10.968303 21.211788 -1.3787888
-10.925224 21.301348 -1.3822531
-10.867306 21.353361 -1.3834078
-10.755184 21.298271 -1.377634
-10.697164 21.349808 -1.3787888
-10.634478 21.39225 -1.3793662
-10.624603 21.541962 -1.3868722
-10.429021 21.304363 -1.3695507
-10.33217 21.284937 -1.3660865
-10.30854 21.407251 -1.3718603
-10.193928 21.340425 -1.365509
-10.152468 21.426483 -1.3689733
-10.034175 21.349838 -1.3620448
-9.9501858 21.34506 -1.3597353
-9.9417076 21.503088 -1.3678185
-9.7992401 21.370855 -1.3574257
-9.8931446 21.755995 -1.3799436
-9.6073427 21.304579 -1.3493423
-9.3978014 21.015644 -1.3291339
-9.4894714 21.401031 -1.3516519
-9.5547209 21.732355 -1.3707055
-9.2631121 21.249725 -1.3383721
-9.1846857 21.261993 -1.3372173
-9.2003298 21.483482 -1.3493423
-9.1132994 21.466328 -1.3464555
-9.6752691 21.165529 -1.4860946
-9.5757446 21.123117 -1.4809877
-9.6444435 21.453432 -1.5020535
-9.5976305 21.539988 -1.5058837
-9.5137758 21.53352 -1.5033302
-9.4540892 21.581585 -1.504607
-9.3186226 21.455584 -1.4937549
-9.3617411 21.741377 -1.5116289
-9.2620344 21.69726 -1.5065221
-15.246825 20.757854 -0.44887587
-15.157959 20.773348 -0.44817781
-15.06914 20.78849 -0.4474797
-14.968693 20.787052 -0.44643256
-14.880035 20.801453 -0.44573444
-14.797236 20.823648 -0.4452109
-14.699268 20.831762 -0.44433826
-14.616527 20.853283 -0.44381469
-14.528085 20.86628 -0.44311658
-14.422634 20.854265 -0.44189492
-14.34006 20.87475 -0.44137135
-14.234951 20.861891 -0.44014966
-14.146894 20.873409 -0.43945161
-14.058909 20.884577 -0.43875349
-13.987667 20.920332 -0.43857896
-13.877613 20.897547 -0.43718275
-13.795369 20.916006 -0.43665919
-13.696711 20.909065 -0.43561205
-13.081689 20.970009 -0.4307254
-12.994673 20.977009 -0.43002728
-12.907748 20.983669 -0.42932922
-12.81569 20.981459 -0.42845657
-12.728968 20.987425 -0.42775849
-12.652654 21.010181 -0.42740944
-12.552121 21.000538 -0.42636231
-12.480976 21.031271 -0.42618775
-12.394535 21.035923 -0.42548966
-12.313233 21.048872 -0.4249661
-12.211884 21.026934 -0.42374441
-12.130774 21.039217 -0.42322084
-12.049714 21.051191 -0.42269728
-11.963751 21.054178 -0.42199919
-11.892636 21.082949 -0.42182466
-11.801906 21.076593 -0.42095202
-11.716198 21.078613 -0.42025393
-11.640253 21.097813 -0.41990489
-11.554699 21.099201 -0.41920677
-11.464469 21.091482 -0.41833416
-11.388656 21.109795 -0.41798511
-11.312836 21.127846 -0.4176361
-11.222937 21.119139 -0.41676345
-11.142539 21.127764 -0.41623989
-11.06314 21.146881 -0.41589084
-10.973602 21.137169 -0.4150182
-10.971283 21.295959 -0.41746157
-10.968067 21.454945 -0.41990489
-10.982067 21.64978 -0.42304632
-10.958967 21.773476 -0.42479157
-10.877106 21.780962 -0.42426798
-10.964056 22.128561 -0.43037635
-11.013633 22.40514 -0.43508849
-10.955815 22.655798 -0.43857896
-11.023347 22.989491 -0.44433826
-10.972281 23.058207 -0.44503635
-10.895514 23.083523 -0.44486183
-10.801738 23.072365 -0.44398919
-10.720772 23.088053 -0.44364017
-10.631452 23.085293 -0.44294205
-10.546404 23.091301 -0.44241852
-10.46143 23.096996 -0.44189492
-10.380616 23.111509 -0.44154587
-10.295781 23.127539 -0.4411968
-10.206918 23.123184 -0.44049874
-10.114165 23.109343 -0.4396261
-10.033555 23.122662 -0.43927708
-9.9569073 23.144886 -0.43910253
-9.8723764 23.148462 -0.43857896
-15.184739 20.750483 -0.59604716
-15.090081 20.75765 -0.59488666
-15.007231 20.780643 -0.5941903
-14.918563 20.795197 -0.5932619
-14.824143 20.801258 -0.5921014
-14.729838 20.806929 -0.59094083
-14.647142 20.828573 -0.59024453
-14.55301 20.833506 -0.58908397
-14.464685 20.846272 -0.58815563
-14.370756 20.850452 -0.58699507
-14.276938 20.854256 -0.5858345
-14.194488 20.874203 -0.5851382
-14.089664 20.860704 -0.58351344
-14.009276 20.890705 -0.58304924
-13.910319 20.884693 -0.58165663
-13.822576 20.894938 -0.58072817
-13.734901 20.904842 -0.57979977
-13.65277 20.922771 -0.57910347
-13.11969 20.966841 -0.57330084
-13.032651 20.973989 -0.57237244
-12.950941 20.989307 -0.57167608
-12.848375 20.970221 -0.57005137
-12.772041 20.993397 -0.56958711
-12.680173 20.990637 -0.56842661
-12.59874 21.004648 -0.56773031
-12.512223 21.009771 -0.56680191
-12.420714 21.005947 -0.56564134
-12.344535 21.027626 -0.56517714
-12.263311 21.04039 -0.56448084
-12.172109 21.035549 -0.56332028
-12.072411 21.023785 -0.56192762
-12.001354 21.052919 -0.56169552
-11.915455 21.055721 -0.56076711
-11.834559 21.0669 -0.56007081
-11.748837 21.069054 -0.55914241
-11.672906 21.088366 -0.55867815
-11.587336 21.089888 -0.55774975
-11.506664 21.099855 -0.55705345
-11.426039 21.109528 -0.55635709
-11.336008 21.101286 -0.55519658
-11.246141 21.092686 -0.55403602
-11.161113 21.092569 -0.55310762
-11.085499 21.109825 -0.55264342
-11.014502 21.135683 -0.55241132
-10.96731 21.216497 -0.55357188
-10.982748 21.410954 -0.55774975
-10.987995 21.5879 -0.56146342
-10.98323 21.747242 -0.56471294
-10.905892 21.763765 -0.56424868
-10.886435 21.896387 -0.56680191
-11.012212 22.324963 -0.57701451
-11.007951 22.494141 -0.58049613
-11.015828 22.690489 -0.584674
-11.035604 22.914125 -0.58954823
-10.998334 23.031786 -0.59163719
-10.921645 23.05719 -0.59140503
-10.836396 23.064243 -0.59070873
-10.751218 23.070988 -0.59001243
-10.670292 23.086502 -0.58954823
-10.581047 23.083557 -0.58861977
-10.49606 23.089384 -0.58792347
-10.411146 23.094902 -0.58722717
-10.330375 23.109243 -0.58676291
-10.245572 23.114164 -0.58606666
-10.160833 23.118782 -0.5853703
-10.080168 23.132259 -0.5849061
-9.99158 23.127106 -0.5839777
-9.911005 23.140001 -0.58351344
-9.8226252 23.134216 -0.5825851
-15.158882 20.777296 -0.73524123
-15.046606 20.760067 -0.7329517
-14.963796 20.782896 -0.7320931
-14.880989 20.805408 -0.73123449
-14.775027 20.795015 -0.72923112
-14.692337 20.816826 -0.72837251
-14.598176 20.821957 -0.72694159
-14.492709 20.810293 -0.72493821
-14.410198 20.831059 -0.72407955
-14.322046 20.843269 -0.72293484
-14.228319 20.846878 -0.72150379
-14.145935 20.866652 -0.72064525
-14.052395 20.869532 -0.7192142
-13.960893 20.882776 -0.71806943
-13.873106 20.893219 -0.71692467
-13.774382 20.886631 -0.71520746
-13.692269 20.904713 -0.71434885
-13.599276 20.905729 -0.71291786
-13.175167 20.975168 -0.70805252
-13.077466 20.965567 -0.70633537
-12.990487 20.972553 -0.70519054
-12.898353 20.97069 -0.70375961
-12.811572 20.97698 -0.70261478
-12.723356 20.972168 -0.7011838
-12.641932 20.986349 -0.70032519
-12.551754 20.993837 -0.69918042
-12.465333 20.998781 -0.6980356
-12.384074 21.012003 -0.69717699
-12.302862 21.024921 -0.69631845
-12.206623 21.011608 -0.69460124
-12.120583 21.015213 -0.69345647
-12.044565 21.035839 -0.69288403
-11.958668 21.038813 -0.69173926
-11.872864 21.041454 -0.69059449
-11.796936 21.061205 -0.69002205
-11.711287 21.063215 -0.68887728
-11.630567 21.073648 -0.68801868
-11.549903 21.083782 -0.68716013
-11.459735 21.076052 -0.68572909
-11.375546 21.087547 -0.68487054
-11.290374 21.087927 -0.68372571
-11.209995 21.096811 -0.68286711
-11.129681 21.105396 -0.68200856
-11.049416 21.113688 -0.68114996
-10.969213 21.121681 -0.68029135
-10.948586 21.244896 -0.68315333
-10.9637 21.439388 -0.6883049
-10.959604 21.598526 -0.69231164
-10.963612 21.775707 -0.69689083
-10.86455 21.758284 -0.69517362
-10.871568 21.94458 -0.70003897
-10.98332 22.346447 -0.7117731
-10.987532 22.533587 -0.71663845
-10.995021 22.729973 -0.72179002
-11.005714 22.935637 -0.72722775
-10.963671 23.033281 -0.72923112
-10.882724 23.04953 -0.72865874
-10.801777 23.0655 -0.72808635
-10.712424 23.063057 -0.72694159
-10.627368 23.069361 -0.72608292
-10.542385 23.075357 -0.72522438
-10.449313 23.073765 -0.72407955
-10.372676 23.097361 -0.72379339
-10.287868 23.102438 -0.72293484
-10.199094 23.098064 -0.72179002
-10.122468 23.120836 -0.72150379
-10.037847 23.125013 -0.72064525
-9.9493418 23.119707 -0.71950042
-9.8648977 23.123264 -0.71864182
-9.7883091 23.144938 -0.71835566
-15.047715 20.740196 -0.89342707
-14.964962 20.763041 -0.89238012
-14.870575 20.769318 -0.89063513
-14.776302 20.775206 -0.88889015
-14.682135 20.780708 -0.88714522
-14.593822 20.794003 -0.88574922
-14.499853 20.798754 -0.88400424
-14.408054 20.813848 -0.88260823
-14.308635 20.809591 -0.88051426
-14.220652 20.821421 -0.87911826
-14.127123 20.824638 -0.87737334
-14.044885 20.844048 -0.87632632
-13.957104 20.854843 -0.87493038
-13.869397 20.86529 -0.87353438
-13.787263 20.883736 -0.87248743
-13.688721 20.876791 -0.8703934
-13.601256 20.886192 -0.86899745
-13.166784 20.938805 -0.86236656
-13.079775 20.946152 -0.86097056
-12.982314 20.936172 -0.85887659
-12.90442 20.94907 -0.85782963
-12.816134 20.944635 -0.85608459
-12.727394 20.963614 -0.85503769
-12.646002 20.977812 -0.85399067
-12.55951 20.983133 -0.85259473
-12.473115 20.988115 -0.85119873
-12.391883 21.001373 -0.85015172
-12.295549 20.988453 -0.84805775
-12.21448 21.001057 -0.84701073
-12.128465 21.004702 -0.84561479
-12.052477 21.02536 -0.84491676
-11.956722 21.010996 -0.84282285
-11.880825 21.031052 -0.84212482
-11.800039 21.042118 -0.84107786
-11.709578 21.035419 -0.83933288
-11.624113 21.037107 -0.83793694
-11.549484 21.066774 -0.83758789
-11.459367 21.059057 -0.83584291
-11.38366 21.077366 -0.83514494
-11.303226 21.086597 -0.83409798
-11.21816 21.086704 -0.83270192
-11.133204 21.086489 -0.83130598
-11.052993 21.094801 -0.83025897
-10.977452 21.111683 -0.829561
-10.947717 21.217127 -0.832353
-10.96751 21.42045 -0.83898389
-10.950694 21.563644 -0.84317183
-10.837942 21.508682 -0.83968186
-10.774787 21.551563 -0.84003085
-10.826877 21.827066 -0.84945375
-10.700913 21.744389 -0.84491676
-11.004622 22.530441 -0.87423235
-11.00387 22.719732 -0.88016528
-11.00598 22.907345 -0.88609821
-10.860902 22.788424 -0.88016528
-9.7670155 21.709187 -0.82990998
-9.7231817 21.794531 -0.83200401
-10.123691 23.081717 -0.87876934
-10.01528 23.030914 -0.87562835
-9.4407663 21.907461 -0.83165503
