# .PCD v0.7 - Point Cloud Data file format
VERSION 0.7
FIELDS x y z
SIZE 4 4 4
TYPE F F F
COUNT 1 1 1
WIDTH 84
HEIGHT 1
VIEWPOINT 0 0 0 1 0 0 0
POINTS 84
DATA ascii
0.60226077 24.241697 0.13943882
0.67841208 24.239687 0.13943882
0.75517452 24.257425 0.13955401
0.83070683 24.234945 0.13943882
0.90720755 24.242208 0.13949642
0.98799843 24.24906 0.13955401
1.0646073 24.255827 0.13961162
0.62744606 24.211796 0.0042202063
0.70379299 24.2197 0.0042219511
0.77987474 24.217369 0.0042219511
0.85630125 24.224794 0.0042236964
0.93241113 24.221985 0.0042236964
1.0089142 24.228928 0.0042254417
0.51689553 24.53455 0.97975534
0.5951879 24.58275 0.98175329
0.67158413 24.550795 0.98055452
0.74902612 24.55855 0.98095411
0.82414258 24.496159 0.97855669
0.90404928 24.57333 0.98175329
0.98164195 24.580353 0.98215288
1.059733 24.597113 0.98295206
0.6280033 24.211519 -0.11394051
0.70858228 24.219297 -0.11398762
0.78498727 24.226948 -0.11403474
0.86039239 24.204376 -0.11394051
0.93642521 24.201553 -0.11394051
1.013705 24.228464 -0.11408187
0.69052517 24.158461 -0.24847135
0.76641458 24.156172 -0.24847135
0.84266001 24.163639 -0.24857432
0.91894704 24.170864 -0.2486773
0.99528784 24.177849 -0.24878027
0.51901376 24.513567 0.7179814
0.59650105 24.531801 0.71856773
0.67301953 24.509821 0.7179814
0.75001281 24.507587 0.7179814
0.82634193 24.485128 0.71739501
0.90582085 24.552334 0.71944726
0.98843366 24.579159 0.72032678
1.0669355 24.605892 0.72120631
0.50143141 24.458204 0.56703973
0.5782634 24.456507 0.56703973
0.65482271 24.444576 0.56680763
0.7325061 24.472376 0.56750393
0.80906475 24.459961 0.56727183
0.88662297 24.477282 0.56773603
0.96312052 24.464386 0.56750393
1.0399697 24.461239 0.56750393
0.55499458 24.159809 0.42533737
0.63167411 24.187933 0.42586619
0.7109971 24.155722 0.42533737
0.78753036 24.173357 0.42568994
0.86382377 24.180756 0.42586619
0.9401843 24.187912 0.42604247
1.0157446 24.17485 0.42586619
1.0879111 24.181719 0.42604247
0.54707032 24.161705 0.28637388
0.62297064 24.159866 0.28637388
0.6991691 24.167786 0.28649256
0.77541059 24.175463 0.28661123
0.85135299 24.172909 0.28661123
0.92728704 24.170115 0.28661123
1.0032247 24.167082 0.28661123
1.0800365 24.18379 0.2868486
0.91429752 23.982676 -0.96654123
0.99339873 23.969528 -0.96613818
1.0695915 23.986254 -0.96694434
0.77990663 23.973249 -0.41798511
0.85592216 23.990665 -0.41833416
0.9354744 23.987696 -0.41833416
1.0112449 23.994629 -0.41850871
0.74172455 23.941996 -0.55519658
0.817967 23.969521 -0.55589288
0.89437693 23.996805 -0.55658925
0.96935457 23.983887 -0.55635709
1.0446942 23.980724 -0.55635709
0.7761761 23.95755 -0.6851567
0.85109091 23.945005 -0.68487054
0.92708331 23.962189 -0.68544292
1.0019364 23.949171 -0.6851567
1.0785167 23.975863 -0.68601531
0.83476561 23.940474 -0.83514494
0.91111517 23.967691 -0.83619189
0.98557764 23.944738 -0.83549392
