# .PCD v0.7 - Point Cloud Data file format
VERSION 0.7
FIELDS x y z
SIZE 4 4 4
TYPE F F F
COUNT 1 1 1
WIDTH 773
HEIGHT 1
VIEWPOINT 0 0 0 1 0 0 0
POINTS 773
DATA ascii
-6.910327 -5.7338991 0.051490419
-6.8897486 -5.6803303 0.051202439
-6.8920965 -5.6459746 0.051087253
-6.9020486 -5.6179762 0.051029656
-6.9118919 -5.589973 0.050972059
-6.9128675 -5.556901 0.05085687
-6.9234462 -5.5277019 0.050799273
-6.9319868 -5.5009141 0.050741676
-6.950191 -5.4778962 0.050741676
-6.9585457 -5.4510798 0.050684083
-6.976584 -5.4279742 0.050684083
-6.9777856 -5.3937888 0.05056889
-6.9946966 -5.37184 0.05056889
-7.0106044 -5.3510633 0.05056889
-7.0203457 -5.3217392 0.050511293
-7.0281219 -5.2948647 0.050453704
-7.052722 -5.2787566 0.050511293
-7.0692716 -5.2565727 0.050511293
-7.0857501 -5.2343388 0.050511293
-7.1182766 -5.2238946 0.050626487
-7.150805 -5.2132993 0.050741676
-7.1833391 -5.2025495 0.05085687
-7.2239881 -5.1974931 0.051029656
-7.280941 -5.2038703 0.051317632
-7.3543034 -5.2215304 0.051720802
-7.8771586 -5.0174975 0.053563863
-7.8337469 -4.9552708 0.05316069
-6.7773504 -5.7430072 -0.99824822
-6.7715473 -5.7036839 -0.99488336
-6.7741842 -5.6696358 -0.99264008
-6.8020101 -5.620636 -0.99151856
-6.8119493 -5.5929394 -0.99039686
-6.8140793 -5.5589576 -0.98815358
-6.8237858 -5.5312724 -0.98703206
-6.8333864 -5.5035787 -0.98591036
-6.8428793 -5.4758811 -0.98478872
-6.8600492 -5.4543557 -0.98478872
-6.8693485 -5.4266233 -0.98366708
-6.8785434 -5.3988853 -0.9825455
-6.8954697 -5.3772502 -0.9825455
-6.9123297 -5.3555598 -0.9825455
-6.9291196 -5.3338184 -0.9825455
-6.9458427 -5.3120227 -0.9825455
-6.9545798 -5.2841697 -0.98142385
-6.9711471 -5.2622943 -0.98142385
-6.9796901 -5.2344122 -0.98030221
-6.9961009 -5.2124581 -0.98030221
-7.0195255 -5.1975856 -0.98142385
-7.0358191 -5.1755085 -0.98142385
-7.0680976 -5.1650929 -0.98366708
-7.1012797 -5.1532879 -0.98591036
-7.1487923 -5.1554236 -0.99039686
-7.2538514 -5.1965389 -1.0027348
-7.7546525 -4.9528365 -1.0341403
-7.8457246 -4.976305 -1.044235
-6.8936572 -5.73908 0.0015585789
-6.8885407 -5.6982689 0.0015533429
-6.8842239 -5.6563439 0.001548107
-6.8787241 -5.6157126 0.001542871
-6.8953557 -5.5952787 0.001542871
-6.8973331 -5.5610309 0.0015393803
-6.8991628 -5.5268288 0.0015358897
-6.9086695 -5.4988966 0.0015341444
-6.926867 -5.475956 0.0015341444
-6.9352217 -5.4491997 0.001532399
-6.9523058 -5.4273863 0.001532399
-6.9614224 -5.3993864 0.0015306537
-6.9704309 -5.3713856 0.0015289084
-6.9872718 -5.3494601 0.0015289084
-6.9960842 -5.3214273 0.0015271631
-7.0127683 -5.2994213 0.0015271631
-7.0213857 -5.2713594 0.0015254177
-7.045927 -5.2552547 0.0015271631
-7.0624013 -5.2330942 0.0015271631
-7.0788074 -5.2108803 0.0015271631
-7.1112833 -5.2004256 0.0015306537
-7.1518545 -5.1956964 0.0015358897
-7.2005715 -5.196619 0.001542871
-7.2403326 -5.1927209 0.001548107
-7.3217564 -5.2163815 0.0015620696
-7.8863087 -5.0412626 0.0016266467
-7.589776 -4.8180966 0.0015620696
-6.7476296 -5.6994247 0.35162511
-6.742527 -5.6589422 0.35042638
-6.7525954 -5.6313372 0.35002682
-6.7548566 -5.5973549 0.34922767
-6.7724085 -5.5761056 0.34922767
-6.7898922 -5.5548029 0.34922767
-6.7995515 -5.5271473 0.34882808
-6.8091059 -5.499485 0.34842852
-6.8263488 -5.4780674 0.34842852
-6.8435254 -5.4565935 0.34842852
-6.852797 -5.4288683 0.34802896
-6.8698192 -5.4073119 0.34802896
-6.8788972 -5.3795533 0.34762937
-6.8957644 -5.3579154 0.34762937
-6.9125619 -5.336226 0.34762937
-6.9292927 -5.3144822 0.34762937
-6.9380021 -5.2866373 0.34722978
-6.9625478 -5.2708397 0.34762937
-6.987061 -5.2549419 0.34802896
-7.0026221 -5.2341881 0.34802896
-7.0270576 -5.2181139 0.34842852
-7.0434155 -5.196013 0.34842852
-7.076736 -5.1844268 0.34922767
-7.1082506 -5.1751595 0.35002682
-7.1568747 -5.1762042 0.35162511
-7.1893368 -5.1653452 0.35242423
-7.2218032 -5.1543322 0.35322341
-7.2705789 -5.1547155 0.35482171
-7.3357749 -5.1663375 0.35721913
-7.9282293 -5.1829228 0.37719783
-7.9360881 -5.152555 0.37679824
-7.9429431 -5.1235728 0.37639871
-7.9421654 -5.0878248 0.37559953
-7.8493428 -4.9918194 0.37040508
-7.8649859 -4.9671364 0.37040508
-7.9144249 -4.9636173 0.37200338
-7.9299788 -4.9387298 0.37200338
-7.927597 -4.904676 0.37120423
-7.9259329 -4.8692946 0.37040508
-7.9326577 -4.8391738 0.37000552
-7.9307227 -4.803884 0.36920637
-7.9286437 -4.7686567 0.36840722
-7.9350042 -4.738606 0.36800766
-6.8741846 -5.7154341 -0.041938398
-6.8612628 -5.6683412 -0.04174991
-6.8558459 -5.6277275 -0.041608546
-6.8657408 -5.5998435 -0.041561425
-6.8755298 -5.5719509 -0.0415143
-6.8696299 -5.5315142 -0.041372936
-6.8869743 -5.5099044 -0.041372936
-6.8885913 -5.4758005 -0.041278698
-6.904808 -5.4553375 -0.041278698
-6.9140458 -5.4274445 -0.041231573
-6.9241185 -5.3983393 -0.041184451
-6.9489498 -5.3826833 -0.041231573
-6.9578986 -5.3547297 -0.041184451
-6.9587979 -5.3206987 -0.041090209
-6.9745536 -5.3000288 -0.041090209
-6.9911704 -5.2780905 -0.041090209
-6.9997158 -5.250103 -0.041043088
-7.0161757 -5.228086 -0.041043088
-7.0486417 -5.2179151 -0.041137327
-7.0649986 -5.1957464 -0.041137327
-7.0893631 -5.1794224 -0.041184451
-7.1379757 -5.180614 -0.041372936
-7.1785541 -5.175703 -0.0415143
-7.2516952 -5.1938748 -0.041844156
-7.8380828 -5.0051246 -0.043634787
-7.7862 -4.937644 -0.043257806
-6.6210203 -5.7891006 0.50636458
-6.6572633 -5.7473855 0.50636458
-6.659143 -5.7145963 0.50520986
-6.6618767 -5.6806836 0.50405508
-6.6720786 -5.6532679 0.50347769
-6.6821718 -5.625845 0.5029003
-6.6921606 -5.598413 0.50232291
-6.7020411 -5.5709758 0.50174552
-6.7195106 -5.5498924 0.50174552
-6.7369123 -5.5287561 0.50174552
-6.7542486 -5.5075631 0.50174552
-6.7715173 -5.4863176 0.50174552
-6.7809472 -5.4587512 0.50116813
-6.7980623 -5.4374223 0.50116813
-6.806355 -5.4110112 0.5005908
-6.8242617 -5.3884106 0.5005908
-6.840219 -5.3681388 0.5005908
-6.8579831 -5.3454261 0.5005908
-6.8659244 -5.3189359 0.50001341
-6.8914337 -5.3022308 0.5005908
-6.9159851 -5.2866211 0.50116813
-6.9325585 -5.2648687 0.50116813
-6.9640789 -5.2563152 0.50232291
-6.9894557 -5.2391853 0.5029003
-7.0209742 -5.2303619 0.50405508
-7.045393 -5.2142224 0.50463247
-7.0778184 -5.2039013 0.50578725
-7.1102486 -5.1934257 0.50694197
-7.1426821 -5.1827998 0.50809675
-7.1913085 -5.1837063 0.51040632
-7.2156715 -5.1669044 0.51098365
-7.2481313 -5.1557951 0.51213843
-7.288743 -5.1502957 0.5138706
-7.3375578 -5.1503348 0.5161801
-7.4110036 -5.1672606 0.52022183
-7.9782872 -5.1273651 0.54620403
-7.9607058 -5.0807729 0.54389447
-7.8923364 -5.002244 0.53812063
-7.8911204 -4.9667807 0.53696591
-7.9489985 -4.9684453 0.5398528
-7.9637046 -4.9448385 0.5398528
-7.9622102 -4.909308 0.53869802
-7.9520612 -4.8686152 0.53696591
-7.9502606 -4.8332281 0.53581113
-6.8338799 -5.684617 -0.091130182
-6.8439951 -5.6567535 -0.091027223
-6.8308063 -5.609859 -0.090615332
-6.8406458 -5.5820537 -0.090512358
-6.8503766 -5.5542436 -0.090409383
-6.8677912 -5.5326958 -0.090409383
-6.8773289 -5.5048475 -0.090306409
-6.8867588 -5.4769969 -0.090203442
-6.8960824 -5.4491386 -0.090100475
-6.9052973 -5.4212775 -0.0899975
-6.9301839 -5.4057016 -0.090100475
-6.9392238 -5.3777838 -0.0899975
-6.9402318 -5.3437653 -0.089791559
-6.949039 -5.3158655 -0.089688584
-6.9577408 -5.2879615 -0.08958561
-6.9733996 -5.2672944 -0.08958561
-6.9819102 -5.2393646 -0.089482635
-7.0063572 -5.2233753 -0.08958561
-7.0155997 -5.1941671 -0.089482635
-7.0551538 -5.191093 -0.089791559
-7.0795026 -5.1747994 -0.089894526
-7.1281052 -5.1760139 -0.090306409
-7.1605568 -5.1652861 -0.090512358
-7.2092757 -5.1660419 -0.090924248
-7.820425 -4.9942951 -0.095146097
-7.6671262 -4.8626909 -0.09308666
-6.4387817 -5.8377895 0.70065671
-6.4422717 -5.8041987 0.69904238
-6.453043 -5.777288 0.69823515
-6.4711618 -5.7569857 0.69823515
-6.4667993 -5.7168384 0.69581354
-6.4847283 -5.6964931 0.69581354
-6.4950781 -5.6695437 0.69500631
-6.5128579 -5.6491103 0.69500631
-6.5230179 -5.6221199 0.69419909
-6.5330749 -5.5951204 0.69339192
-6.5506196 -5.5745697 0.69339192
-6.5519018 -5.5422444 0.69177747
-6.5692816 -5.5216327 0.69177747
-6.5865951 -5.5009685 0.69177747
-6.5961704 -5.4738879 0.69097024
-6.5979457 -5.4404674 0.68935585
-6.6072912 -5.4133997 0.68854862
-6.6242647 -5.3926163 0.68854862
-6.63342 -5.3655148 0.6877414
-6.6502428 -5.3446498 0.6877414
-6.6669998 -5.3237319 0.6877414
-6.6836929 -5.3027596 0.6877414
-6.7081504 -5.2879024 0.68854862
-6.7247305 -5.2668014 0.68854862
-6.7491131 -5.2517657 0.68935585
-6.7734694 -5.2366276 0.69016308
-6.8057036 -5.2274556 0.69177747
-6.822093 -5.206048 0.69177747
-6.8543077 -5.1966243 0.69339192
-6.8865309 -5.187047 0.69500631
-6.9187608 -5.177321 0.69662076
-6.9580975 -5.1745982 0.69904238
-6.9983816 -5.170465 0.70146394
-7.0306687 -5.1602397 0.70307839
-7.063859 -5.1486273 0.70469278
-7.103333 -5.1451716 0.70711446
-7.1275563 -5.1286459 0.70792162
-7.1517453 -5.1120205 0.70872885
-7.1840324 -5.1010575 0.7103433
-7.2407651 -5.1071625 0.71437925
-7.3139424 -5.1243887 0.72002977
-7.4445896 -5.181026 0.73133063
-7.6248817 -5.2708673 0.74747491
-7.9137659 -5.2170281 0.76442617
-7.9384599 -5.1975946 0.7652334
-7.9380307 -5.1617737 0.76361901
-7.9290771 -5.120604 0.76119733
-7.9358449 -5.0916762 0.76039022
-7.8938131 -5.0278864 0.7547397
-7.8421555 -4.9604764 0.74828202
-7.8661437 -4.941113 0.74908924
-7.9070086 -4.9321852 0.75151086
-7.9139881 -4.9020782 0.75070369
-7.9284978 -4.8785758 0.75070369
-7.9267683 -4.8432589 0.74908924
-7.9334192 -4.8131685 0.74828202
-7.9143376 -4.7676678 0.74505317
-7.903605 -4.7274485 0.74263161
-7.9012713 -4.6924253 0.74101716
-6.8327518 -5.7119474 0.26004469
-6.8276072 -5.6712794 0.2591652
-6.8299789 -5.6370678 0.25857884
-6.8476553 -5.615582 0.25857884
-6.8497729 -5.5814052 0.25799251
-6.8595095 -5.5535626 0.25769931
-6.8769217 -5.5319862 0.25769931
-6.8864632 -5.504108 0.25740615
-6.9037204 -5.4824471 0.25740615
-6.9130669 -5.4545341 0.25711295
-6.9301682 -5.4327898 0.25711295
-6.9314384 -5.3986964 0.25652662
-6.9562654 -5.3830175 0.25681981
-6.9731431 -5.361136 0.25681981
-6.9899507 -5.3392038 0.25681981
-6.9978037 -5.3123918 0.25652662
-7.0153818 -5.2891569 0.25652662
-7.031044 -5.2683187 0.25652662
-7.0555754 -5.2521768 0.25681981
-7.0720401 -5.2299862 0.25681981
-7.1125913 -5.2255116 0.25769931
-7.1289721 -5.2031417 0.25769931
-7.1776385 -5.2042089 0.258872
-7.210166 -5.1933289 0.25945833
-7.2670736 -5.1997585 0.26092422
-7.2996607 -5.1884961 0.26151058
-7.3730583 -5.2059293 0.26356277
-7.8881197 -5.0303559 0.2732375
-7.6675215 -4.8556666 0.26502866
-7.9026546 -4.9700418 0.27265117
-7.9769731 -4.8112669 0.27206481
-8.0091944 -4.7964635 0.27265117
-6.8276381 -5.6739874 0.20518343
-6.8309989 -5.6385827 0.2047192
-6.84868 -5.6170936 0.2047192
-6.8585434 -5.5892339 0.2044871
-6.8673301 -5.5625658 0.204255
-6.8769851 -5.5346932 0.20402288
-6.8865314 -5.5068169 0.20379077
-6.9037981 -5.4851542 0.20379077
-6.914103 -5.4560347 0.20355867
-6.9223962 -5.4293256 0.20332657
-6.9394183 -5.4075522 0.20332657
-6.9484692 -5.379602 0.20309445
-6.9574113 -5.3516498 0.20286234
-6.9741907 -5.3297648 0.20286234
-6.9908996 -5.3078294 0.20286234
-6.9995604 -5.2798176 0.20263024
-7.0241113 -5.2637997 0.20286234
-7.0486321 -5.2476778 0.20309445
-7.0731192 -5.2314558 0.20332657
-7.1056285 -5.2210526 0.20379077
-7.138144 -5.210495 0.204255
-7.1787534 -5.205657 0.20495132
-7.2112932 -5.1947675 0.20541552
-7.2510586 -5.1908126 0.20611186
-7.3162065 -5.2027788 0.2075045
-7.4304852 -5.2490082 0.21028979
-7.7634192 -4.9874969 0.2133072
-7.838038 -5.0007362 0.21493196
-7.8790417 -4.9921436 0.21562828
-7.9200668 -4.9833446 0.2163246
-8.0026283 -5.0022297 0.21818146
-8.0446539 -4.9914818 0.21887778
-8.0934668 -4.9885802 0.21980621
-8.1346779 -4.9787903 0.22050256
-6.8534985 -5.7693276 0.15723206
-6.8434691 -5.6878157 0.15617444
-6.8381729 -5.6471915 0.15564564
-6.8404183 -5.6129999 0.15529309
-6.8502693 -5.5851655 0.15511683
-6.8522401 -5.551033 0.15476428
-6.8696446 -5.52948 0.15476428
-6.8791728 -5.5016265 0.15458801
-6.8954663 -5.4811916 0.15458801
-6.9048057 -5.4533057 0.15441176
-6.9219027 -5.4315877 0.15441176
-6.9319892 -5.4024591 0.15423548
-6.9489264 -5.3806558 0.15423548
-6.9578705 -5.3527026 0.15405922
-6.9737215 -5.3320346 0.15405922
-6.9904375 -5.310101 0.15405922
-7.0070858 -5.2881126 0.15405922
-7.0236635 -5.2660742 0.15405922
-7.0401735 -5.2439814 0.15405922
-7.064651 -5.2277851 0.15423548
-7.089098 -5.2114849 0.15441176
-7.1215854 -5.2009797 0.15476428
-7.1621718 -5.1961894 0.15529309
-7.2027984 -5.1911974 0.1558219
-7.2597251 -5.1976366 0.15670323
-7.3004651 -5.1921854 0.15723206
-7.6563172 -4.9893227 0.16040489
-7.7548099 -4.984354 0.16181505
-7.8210049 -4.9922347 0.16287267
-7.8619862 -4.983695 0.16340147
-7.9199171 -4.9855952 0.16428281
-7.9779363 -4.9871826 0.16516417
-8.0190506 -4.9779105 0.16569297
-8.0686998 -4.9736724 0.16639805
-8.1269283 -4.9743915 0.16727939
-6.8457928 -5.6543193 0.10491277
-6.8325896 -5.607429 0.10443805
-6.8424182 -5.5796223 0.10431937
-6.8521404 -5.5518079 0.10420069
-6.8617544 -5.5239887 0.10408201
-6.8712635 -5.4961634 0.10396334
-6.8806634 -5.4683337 0.10384465
-6.8978095 -5.4466896 0.10384465
-6.914886 -5.4249935 0.10384465
-6.924005 -5.3970995 0.10372597
-6.9330163 -5.3692036 0.10360729
-6.9498506 -5.3473954 0.10360729
-6.9586678 -5.319469 0.10348862
-6.9753456 -5.2975807 0.10348862
-6.983048 -5.2708421 0.10336994
-6.9995718 -5.248879 0.10336994
-7.0240502 -5.2328315 0.10348862
-7.0404544 -5.2107396 0.10348862
-7.0729094 -5.2004313 0.10372597
-7.09729 -5.1840792 0.10384465
-7.1378322 -5.1793585 0.10420069
-7.1784129 -5.1744356 0.10455672
-7.2271667 -5.1751256 0.10503145
-7.2841482 -5.1813493 0.10562484
-7.8219833 -4.9915366 0.10965995
-7.7108874 -4.8867264 0.10787977
-6.9113674 -5.6901093 -0.35953078
-6.9369378 -5.6747003 -0.35993382
-6.9237328 -5.6276503 -0.35832158
-6.9180694 -5.5870237 -0.35711241
-6.9268289 -5.5602117 -0.35670933
-6.9296107 -5.5247455 -0.35590324
-6.9459734 -5.504159 -0.35590324
-6.9563384 -5.4749117 -0.35550016
-6.9646859 -5.4480867 -0.35509709
-6.9827142 -5.4249606 -0.35509709
-6.9918184 -5.3968863 -0.35469407
-7.0166621 -5.38098 -0.35509709
-7.0246544 -5.3540764 -0.35469407
-7.0184813 -5.312645 -0.35348484
-7.0342131 -5.2917976 -0.35348484
-7.0588036 -5.2756591 -0.35388792
-7.0673232 -5.2474961 -0.35348484
-7.0677004 -5.2133942 -0.35267875
-7.1001549 -5.2029877 -0.35348484
-7.1245403 -5.1865411 -0.35388792
-7.1569848 -5.1758552 -0.35469407
-7.1732106 -5.1533442 -0.35469407
-7.2218819 -5.1540217 -0.35630628
-7.3113675 -5.1833615 -0.35993382
-7.8309836 -4.9458981 -0.37202567
-7.9048486 -4.9598508 -0.37484711
-6.9066048 -5.7397127 -0.41536185
-6.9014997 -5.6988997 -0.41396958
-6.8894711 -5.6506362 -0.41211322
-6.8917036 -5.6163406 -0.41118503
-6.9083371 -5.5958681 -0.41118503
-6.9103227 -5.5616074 -0.41025686
-6.91996 -5.5336308 -0.40979275
-6.9294906 -5.5056472 -0.40932867
-6.9398699 -5.4764476 -0.40886456
-6.9560881 -5.455833 -0.40886456
-6.9653153 -5.4278126 -0.40840051
-6.9744363 -5.3997855 -0.40793639
-6.9755316 -5.3656645 -0.4070082
-7.0002904 -5.3497901 -0.40747228
-7.0091071 -5.3217301 -0.4070082
-7.0178194 -5.2936664 -0.40654412
-7.026422 -5.2656016 -0.40608004
-7.0429301 -5.2435007 -0.40608004
-7.0593677 -5.2213497 -0.40608004
-7.0837841 -5.2050638 -0.40654412
-7.1081686 -5.188674 -0.4070082
-7.1486907 -5.1839161 -0.40840051
-7.1649418 -5.1614313 -0.40840051
-7.22083 -5.1692314 -0.41072091
-7.3428478 -5.2218008 -0.41675413
-7.6786222 -4.8651671 -0.42046684
-7.8967586 -4.9687386 -0.43160507
-6.7747121 -5.6554146 -1.2222019
-6.7848253 -5.6277761 -1.220824
-6.7871943 -5.5938244 -1.2180682
-6.7970743 -5.566195 -1.2166903
-6.8068495 -5.5385566 -1.2153124
-6.8242149 -5.5171461 -1.2153124
-6.8415146 -5.4956789 -1.2153124
-6.8500538 -5.469171 -1.2139344
-6.8603964 -5.4402666 -1.2125566
-6.8842821 -5.426023 -1.2139344
-6.894443 -5.3970542 -1.2125566
-6.9104261 -5.3765745 -1.2125566
-6.9282174 -5.3536286 -1.2125566
-6.9450016 -5.3318377 -1.2125566
-6.9538469 -5.3039804 -1.2111787
-6.9774427 -5.2893133 -1.2125566
-6.9870353 -5.2601833 -1.2111787
-7.0026116 -5.2394295 -1.2111787
-7.0190363 -5.2174053 -1.2111787
-7.0353937 -5.1953278 -1.2111787
-7.0516796 -5.1732006 -1.2111787
-7.0678978 -5.1510205 -1.2111787
-7.1000824 -5.1404181 -1.2139344
-7.1242347 -5.1238747 -1.2153124
-7.3336267 -5.239778 -1.2483821
-7.8450751 -4.9952412 -1.2883413
-7.8188891 -4.944078 -1.2814519
-6.8254924 -5.6769733 -0.46317318
-6.8586926 -5.6682224 -0.46421993
-6.8533087 -5.6276402 -0.46264985
-6.8554773 -5.5934577 -0.46160311
-6.8652563 -5.5656066 -0.46107975
-6.8749299 -5.5377479 -0.46055642
-6.8844948 -5.5098848 -0.46003306
-6.8861361 -5.4758005 -0.45898631
-6.8945169 -5.4491549 -0.45846298
-6.8958902 -5.4151368 -0.45741624
-6.9138098 -5.3922391 -0.45741624
-6.9307165 -5.370491 -0.45741624
-6.9475536 -5.3486919 -0.45741624
-6.9563899 -5.3207726 -0.45689288
-6.956244 -5.2880263 -0.45584619
-6.9728222 -5.2661471 -0.45584619
-6.9893322 -5.2442145 -0.45584619
-7.0057721 -5.2222319 -0.45584619
-7.0141177 -5.1942544 -0.4553228
-7.0464916 -5.1840267 -0.45636955
-7.0708065 -5.1677537 -0.45689288
-7.1031709 -5.1572471 -0.45793962
-7.1436396 -5.1524258 -0.45950967
-7.192266 -5.1532173 -0.46160311
-7.656733 -4.8574443 -0.47311705
-7.8832145 -4.9664016 -0.48620102
-6.8458042 -5.7495594 -0.84132731
-6.8409133 -5.7088752 -0.83850414
-6.8358359 -5.6682768 -0.8356809
-6.8459287 -5.640439 -0.8347398
-6.8482161 -5.6062808 -0.83285761
-6.8580751 -5.5784535 -0.83191657
-6.8678279 -5.5506167 -0.83097547
-6.8774724 -5.5227761 -0.83003438
-6.8792329 -5.4887147 -0.82815224
-6.887691 -5.4620886 -0.82721114
-6.905766 -5.439218 -0.82721114
-6.9140382 -5.4125624 -0.82627004
-6.9319491 -5.3896046 -0.82627004
-6.9479098 -5.3690138 -0.82627004
-6.9577818 -5.3398776 -0.82532895
-6.96661 -5.3119531 -0.82438791
-6.9832644 -5.2900395 -0.82438791
-6.9909792 -5.2633038 -0.82344681
-7.0083933 -5.2400932 -0.82344681
-7.0239115 -5.2192745 -0.82344681
-7.0402727 -5.1971831 -0.82344681
-7.0565662 -5.1750388 -0.82344681
-7.0888743 -5.1645799 -0.82532895
-7.1131268 -5.1481252 -0.82627004
-7.1615829 -5.1490202 -0.83003438
-7.2425065 -5.1728263 -0.83756304
-7.8513718 -4.9628658 -0.87426525
-6.8563218 -5.7133431 -0.51387018
-6.8434639 -5.6663251 -0.51156068
-6.8380909 -5.6257849 -0.50982857
-6.8479986 -5.5979595 -0.50925112
-6.8500447 -5.5638404 -0.5080964
-6.8597183 -5.536027 -0.50751901
-6.8692832 -5.5082092 -0.50694162
-6.8709311 -5.4741688 -0.5057869
-6.8802624 -5.4463654 -0.50520951
-6.8894882 -5.4185553 -0.50463212
-6.9143467 -5.403028 -0.50520951
-6.923398 -5.3751607 -0.50463212
-6.9323411 -5.3472919 -0.50405473
-6.9411793 -5.3194189 -0.50347733
-6.9499087 -5.291544 -0.50289994
-6.9655786 -5.2709002 -0.50289994
-6.9821038 -5.2489901 -0.50289994
-6.9985585 -5.2270303 -0.50289994
-7.0158539 -5.203793 -0.50289994
-7.0232229 -5.1770353 -0.50232255
-7.0555701 -5.1667318 -0.50347733
-7.0798421 -5.1504092 -0.50405473
-7.1121778 -5.1398282 -0.50520951
-7.1526303 -5.1349096 -0.50694162
-7.2256474 -5.152956 -0.51098329
-7.8444457 -4.9845619 -0.53523332
-7.8093905 -4.9279575 -0.5317691
-6.8969331 -5.7840371 -0.57324439
-6.887043 -5.702373 -0.56941426
-6.8895183 -5.6680169 -0.56813753
-6.8995676 -5.6400247 -0.56749916
-6.917253 -5.6183205 -0.56749916
-6.9193444 -5.5840182 -0.56622249
-6.9212899 -5.5497561 -0.56494576
-6.9308891 -5.5217628 -0.56430739
-6.9247394 -5.4813638 -0.56239229
-6.9419246 -5.4595828 -0.56239229
-6.9511838 -5.4315972 -0.56175399
-6.9682126 -5.4097338 -0.56175399
-6.9772758 -5.3817143 -0.56111562
-6.9862304 -5.353694 -0.56047726
-7.0100193 -5.3389935 -0.56111562
-7.0117745 -5.3036671 -0.55983889
-7.0115342 -5.2708364 -0.55856222
-7.0360513 -5.2547588 -0.55920058
-7.0525241 -5.2326298 -0.55920058
-7.0689287 -5.2104468 -0.55920058
-7.0933094 -5.1941147 -0.55983889
-7.1176586 -5.1776819 -0.56047726
-7.1662297 -5.1786957 -0.56303066
-7.2067728 -5.1736326 -0.56494576
-7.2554774 -5.1741629 -0.56749916
-7.7219152 -4.8731079 -0.58154303
-6.9147358 -5.7579808 -0.15637356
-6.8942938 -5.7043347 -0.15550093
-6.9276185 -5.6953573 -0.15584998
-6.9145198 -5.6482439 -0.15515189
-6.9167113 -5.613883 -0.15480284
-6.9265351 -5.5858431 -0.15462832
-6.9284515 -5.5515428 -0.15427928
-6.9380403 -5.5235157 -0.15410475
-6.955358 -5.5016928 -0.15410475
-6.9647508 -5.4736304 -0.15393022
-6.9661584 -5.4394073 -0.15358119
-6.9832134 -5.4174948 -0.15358119
-7.0081124 -5.401639 -0.15375569
-6.9933105 -5.3552589 -0.15305759
-7.0091686 -5.334486 -0.15305759
-7.0268202 -5.3112135 -0.15305759
-7.0425477 -5.2903414 -0.15305759
-7.0431147 -5.2562213 -0.15270856
-7.0756488 -5.2459874 -0.15305759
-7.0920939 -5.2237334 -0.15305759
-7.1084704 -5.2014265 -0.15305759
-7.1409435 -5.1908379 -0.15340665
-7.1572165 -5.1683774 -0.15340665
-7.2058997 -5.1692004 -0.15410475
-7.2546601 -5.1697659 -0.15480284
-7.6874251 -4.8475704 -0.15794428
-6.8245602 -5.7708797 -0.63309973
-6.859046 -5.6517391 -0.62955093
-6.8536172 -5.6112022 -0.62742168
-6.871212 -5.5896425 -0.62742168
-6.8800111 -5.5629573 -0.62671191
-6.8896794 -5.5350657 -0.62600213
-6.8914452 -5.5009465 -0.62458271
-6.9008794 -5.4730682 -0.62387294
-6.9033203 -5.4378071 -0.62245339
-6.9272771 -5.4234519 -0.62316316
-6.93641 -5.3955355 -0.62245339
-6.9533253 -5.3737183 -0.62245339
-6.9622641 -5.3457704 -0.62174368
-6.979023 -5.3238721 -0.62174368
-6.9877663 -5.2958932 -0.62103391
-6.9964013 -5.2679133 -0.62032413
-7.0209031 -5.2518835 -0.62103391
-7.0373673 -5.2298017 -0.62103391
-7.0617867 -5.2135925 -0.62174368
-7.0861716 -5.1972833 -0.62245339
-7.1185865 -5.1867466 -0.62387294
-7.1590819 -5.1819091 -0.62600213
-7.2158136 -5.1885161 -0.62955093
-7.3123221 -5.2250929 -0.63664848
-7.7322474 -4.923769 -0.64942402
-7.8825479 -4.9847817 -0.66078001
-6.9001293 -5.7587886 -0.20773451
-6.9086795 -5.6542864 -0.20634186
-6.9108982 -5.6199374 -0.20587766
-6.9042215 -5.5805497 -0.20518136
-6.9139261 -5.5525694 -0.20494924
-6.923522 -5.5245848 -0.20471713
-6.9408445 -5.5028057 -0.20471713
-6.9433484 -5.4673858 -0.20425293
-6.9595399 -5.4467607 -0.20425293
-6.9766164 -5.4248705 -0.20425293
-6.9857149 -5.3968115 -0.20402083
-6.9947047 -5.3687506 -0.20378871
-7.0115376 -5.3467488 -0.20378871
-7.0282993 -5.3246956 -0.20378871
-7.0290213 -5.2905612 -0.20332451
-7.0536113 -5.2744422 -0.2035566
-7.0621243 -5.2462926 -0.20332451
-7.0785704 -5.224081 -0.20332451
-7.1030087 -5.2077289 -0.2035566
-7.1274133 -5.191277 -0.20378871
-7.1517863 -5.1747212 -0.20402083
-7.1842399 -5.1639018 -0.20448503
-7.2239318 -5.1600013 -0.20518136
-7.3623891 -5.2240849 -0.20866293
-7.6392112 -4.8289638 -0.20889504
-7.9167938 -4.969768 -0.21609031
-6.8512478 -5.7025127 -0.67970252
-6.8383889 -5.6555495 -0.67664766
-6.8484182 -5.6277084 -0.67588395
-6.850615 -5.5935578 -0.67435658
-6.8604102 -5.5657272 -0.67359281
-6.8700967 -5.5378923 -0.67282909
-6.8796782 -5.5100498 -0.67206544
-6.8813467 -5.475996 -0.67053801
-6.8985157 -5.4543519 -0.67053801
-6.9068284 -5.4276986 -0.66977423
-6.9247885 -5.4047661 -0.66977423
-6.9338546 -5.3768759 -0.66901058
-6.9507113 -5.3550668 -0.66901058
-6.9675012 -5.3332033 -0.66901058
-6.9762831 -5.3052549 -0.66824687
-6.991993 -5.2845325 -0.66824687
-7.0005865 -5.2565541 -0.66748315
-7.017065 -5.2345362 -0.66748315
-7.0334759 -5.2124648 -0.66748315
-7.0578465 -5.1962538 -0.66824687
-7.0902348 -5.185823 -0.66977423
-7.1226268 -5.1752424 -0.67130172
-7.1631083 -5.170341 -0.67359281
-7.2198367 -5.1768556 -0.67741138
-7.6600075 -4.8633432 -0.69192189
-6.8970361 -5.6979637 -0.25500193
-6.8839936 -5.6509047 -0.25385717
-6.8784695 -5.610302 -0.25299856
-6.880527 -5.5760798 -0.25242615
-6.890223 -5.5481696 -0.25213996
-6.8998137 -5.5202527 -0.25185376
-6.9092951 -5.492331 -0.25156757
-6.917716 -5.4656115 -0.25128138
-6.9269891 -5.4376802 -0.25099516
-6.944037 -5.4158926 -0.25099516
-6.9619589 -5.3928351 -0.25099516
-6.9709435 -5.3648434 -0.250709
-6.9877644 -5.3429165 -0.250709
-7.0035858 -5.3221598 -0.250709
-7.0043139 -5.2880874 -0.25013658
-7.0208917 -5.2660575 -0.25013658
-7.0374017 -5.2439742 -0.25013658
-7.045805 -5.2158947 -0.24985038
-7.0621557 -5.1937346 -0.24985038
-7.0865111 -5.1774168 -0.25013658
-7.1108317 -5.1609993 -0.25042278
-7.1432295 -5.150322 -0.25099516
-7.1675014 -5.1336756 -0.25128138
-7.2243247 -5.1400981 -0.25271237
-7.8675008 -4.9892535 -0.26559123
-7.68011 -4.8367109 -0.25872251
-6.8297782 -5.7378821 -0.72387308
-6.8349943 -5.6694226 -0.72062337
-6.8296857 -5.6289196 -0.71818608
-6.8319058 -5.5948143 -0.7165612
-6.8417134 -5.5670385 -0.71574873
-6.8591695 -5.545516 -0.71574873
-6.8610086 -5.511467 -0.7141239
-6.8704967 -5.4836712 -0.71331149
-6.8798761 -5.4558725 -0.71249902
-6.9048157 -5.4403949 -0.71331149
-6.9140205 -5.4125376 -0.71249902
-6.9231205 -5.384675 -0.71168667
-6.940002 -5.3628998 -0.71168667
-6.9489069 -5.3350048 -0.7108742
-6.9656324 -5.313149 -0.7108742
-6.9734192 -5.2864418 -0.71006179
-6.982028 -5.2585158 -0.70924932
-6.9985132 -5.2365561 -0.70924932
-7.022933 -5.2204838 -0.71006179
-7.0553412 -5.210228 -0.71168667
-7.0716758 -5.1880364 -0.71168667
-7.1121135 -5.1833916 -0.7141239
-7.1364403 -5.166862 -0.71493638
-7.2173963 -5.1909356 -0.72143579
-7.8104401 -4.9725928 -0.7514956
-6.8632784 -5.6727529 -0.30955854
-6.8656106 -5.6384878 -0.30886054
-6.8677979 -5.6042628 -0.30816254
-6.8620696 -5.5637922 -0.30711558
-6.8795142 -5.5422082 -0.30711558
-6.8890862 -5.5143266 -0.30676657
-6.8907237 -5.4802256 -0.30606857
-6.907907 -5.4585495 -0.30606857
-6.9250207 -5.4368219 -0.30606857
-6.9341841 -5.4088969 -0.30571958
-6.9432383 -5.3809695 -0.3053706
-6.9601097 -5.3591294 -0.3053706
-6.9689693 -5.3311706 -0.30502158
-6.9856839 -5.3092499 -0.30502158
-6.9854493 -5.2764626 -0.30432361
-6.9939933 -5.2484984 -0.30397463
-7.0104485 -5.2264991 -0.30397463
-7.0187979 -5.1985068 -0.30362561
-7.043149 -5.1823483 -0.30397463
-7.0674663 -5.1660895 -0.30432361
-7.0998421 -5.1555943 -0.30502158
-7.1403294 -5.1507902 -0.30606857
-7.1564765 -5.1283317 -0.30606857
-7.2295694 -5.1463599 -0.30851156
-7.8654656 -4.9883919 -0.32386732
-7.7119074 -4.8572345 -0.31688744
