# .PCD v0.7 - Point Cloud Data file format
VERSION 0.7
FIELDS x y z
SIZE 4 4 4
TYPE F F F
COUNT 1 1 1
WIDTH 161
HEIGHT 1
VIEWPOINT 0 0 0 1 0 0 0
POINTS 161
DATA ascii
-2.6964326 -4.7714396 -0.98782736
-2.7010109 -4.9505944 0.032253508
-2.726167 -4.9596205 0.032368697
-2.7417345 -4.9510317 0.032368697
-2.7524116 -4.9336557 0.032311101
-2.7678976 -4.9249845 0.032311101
-2.8079467 -4.9597993 0.03259908
-2.6767466 -4.9236417 -0.62811124
-2.6826365 -4.8977876 -0.62586802
-2.6932001 -4.88064 -0.62474638
-2.7085197 -4.8721552 -0.62474638
-2.7238126 -4.8636222 -0.62474638
-2.7390788 -4.855041 -0.62474638
-2.773993 -4.8809481 -0.62923288
-2.7449305 -4.7601862 -0.61577338
-2.7035563 -4.9383035 0.00097563898
-2.7190571 -4.9297857 0.00097563898
-2.7345309 -4.9212193 0.00097563898
-2.7548597 -4.9213319 0.00097738439
-2.7752159 -4.9213648 0.00097912957
-2.6394603 -4.9447684 0.2225627
-2.6763523 -4.902142 0.22176355
-2.6869152 -4.8849602 0.22136399
-2.7071004 -4.8852296 0.22176355
-2.7224343 -4.8767009 0.22176355
-2.7524614 -4.894237 0.22296229
-2.7006867 -4.9284096 -0.026293963
-2.7113204 -4.9111481 -0.02624684
-2.7267358 -4.9026055 -0.02624684
-2.7519059 -4.9114599 -0.026341084
-2.7624042 -4.8940835 -0.026293963
-2.6712954 -4.9788857 0.32448906
-2.6941292 -4.9097042 0.32160214
-2.7086852 -4.9016891 0.32160214
-2.7289188 -4.9018826 0.32217953
-2.7491798 -4.9019971 0.32275692
-2.7645664 -4.8933363 0.32275692
-2.6595571 -4.8932643 -0.056943495
-2.6797278 -4.893651 -0.057046469
-2.6950884 -4.8852086 -0.057046469
-2.7055562 -4.8679814 -0.056943495
-2.7306232 -4.8768983 -0.05714944
-2.7557728 -4.8857055 -0.057355382
-2.6115439 -4.8989029 0.44638616
-2.6414206 -4.8828583 0.44638616
-2.6567476 -4.874536 0.44638616
-2.6720483 -4.8661656 0.44638616
-2.6873226 -4.8577471 0.44638616
-2.7074316 -4.8579826 0.44719338
-2.7324569 -4.8668251 0.44880781
-2.7041762 -4.8891997 0.16271117
-2.7438061 -4.9243631 0.16417705
-2.7543788 -4.9069977 0.16388386
-2.7845156 -4.9244375 0.16476339
-2.6876242 -4.8877001 0.68099755
-2.6973143 -4.8710165 0.67977715
-2.707777 -4.8538465 0.67855674
-2.7278664 -4.8539729 0.67977715
-2.7479837 -4.8540211 0.68099755
-2.7023535 -4.9258442 0.12951623
-2.7178152 -4.9173303 0.12951623
-2.7332494 -4.9087682 0.12951623
-2.7633209 -4.9263196 0.13021256
-2.7689531 -4.9002032 0.12974834
-2.6857173 -4.9356694 0.098358169
-2.6964006 -4.9184418 0.098181896
-2.711839 -4.9099464 0.098181896
-2.7272508 -4.9014025 0.098181896
-2.7524185 -4.9102507 0.098534435
-2.7825878 -4.9276943 0.099063247
-2.6303554 -4.9089026 0.065629818
-2.6850798 -4.9361749 0.066223219
-2.6957598 -4.9189506 0.066104539
-2.7063582 -4.9017086 0.065985858
-2.726613 -4.9019156 0.066104539
-2.746896 -4.9020443 0.066223219
-2.7721305 -4.9107962 0.06646058
-2.7284877 -4.9189911 -0.22531132
-2.7439277 -4.9103951 -0.22531132
-2.7544477 -4.8930387 -0.22490826
-2.7698061 -4.8843613 -0.22490826
-2.7999797 -4.9016781 -0.22611745
-2.6942108 -4.947927 -0.25989121
-2.7397335 -4.9571342 -0.26128349
-2.7455795 -4.9310446 -0.26035529
-2.7512891 -4.9049668 -0.2594271
-2.781419 -4.9223948 -0.26081941
-2.8018081 -4.9223156 -0.26128349
-2.7107315 -4.9296613 -0.77713853
-2.7118313 -4.8951149 -0.77300477
-2.722378 -4.8779182 -0.77162689
-2.7328432 -4.860703 -0.77024895
-2.7481 -4.8520932 -0.77024895
-2.7682297 -4.8520441 -0.77162689
-2.793313 -4.860508 -0.77438271
-2.7739899 -4.7572494 -0.76060367
-2.6769862 -4.8871984 -0.28994119
-2.697154 -4.887506 -0.29046455
-2.7076397 -4.8702826 -0.28994119
-2.732692 -4.8791747 -0.29098791
-2.7430968 -4.8618693 -0.29046455
-2.7632945 -4.8619084 -0.29098791
-2.7168021 -4.902329 -0.52606487
-2.727345 -4.8850722 -0.52512378
-2.7378063 -4.8677979 -0.52418268
-2.7579849 -4.8678398 -0.52512378
-2.7781906 -4.8678021 -0.52606487
-2.6653566 -4.9140368 -0.32102454
-2.6961799 -4.897193 -0.32102454
-2.7115514 -4.8886986 -0.32102454
-2.7220182 -4.8714452 -0.32044715
-2.7471197 -4.88026 -0.3216019
-2.7673707 -4.8802853 -0.32217932
-2.6864326 -4.9115334 -0.35556471
-2.7066572 -4.9118147 -0.35620308
-2.7220747 -4.9032874 -0.35620308
-2.7471905 -4.9121413 -0.35747981
-2.7626083 -4.9034867 -0.35747981
-2.7681649 -4.8774152 -0.35620308
-2.7933631 -4.8860321 -0.35747981
-2.7086222 -4.9113402 -0.097209901
-2.7385805 -4.9290414 -0.097733475
-2.7443023 -4.9029546 -0.097384423
-2.759692 -4.894309 -0.097384423
-2.7799838 -4.8943133 -0.097558945
-2.6752536 -4.9376664 -0.39675191
-2.7111535 -4.8952537 -0.39533243
-2.7313764 -4.8954248 -0.3960422
-2.7516267 -4.8955164 -0.39675191
-2.7768164 -4.904211 -0.39817142
-2.8070271 -4.9214621 -0.40030071
-2.6963956 -4.9746437 -0.13044335
-2.7480927 -4.9233875 -0.12997913
-2.7635462 -4.9147296 -0.12997913
-2.7740481 -4.8973231 -0.12974702
-2.8042753 -4.9146385 -0.13044335
-2.6998365 -4.9330988 -0.42767799
-2.7105038 -4.9158626 -0.42691427
-2.725934 -4.9073229 -0.42691427
-2.7462094 -4.9074349 -0.42767799
-2.7665122 -4.9074669 -0.42844167
-2.7819157 -4.8987513 -0.42844167
-2.6697342 -4.9086051 -0.15883958
-2.7150247 -4.9179821 -0.15969819
-2.7061548 -4.8657575 -0.1582672
-2.7507603 -4.9095449 -0.15998438
-2.7514222 -4.8747687 -0.15912579
-2.7864969 -4.9008527 -0.16027059
-2.6566939 -4.908371 -0.45170978
-2.7115192 -4.9352355 -0.45577189
-2.7125051 -4.9005461 -0.45333463
-2.7327497 -4.9007001 -0.45414704
-2.7530222 -4.9007764 -0.45495948
-2.7733216 -4.9007726 -0.45577189
-2.6628082 -4.8993621 -0.19334321
-2.6733782 -4.8822112 -0.19299421
-2.683867 -4.8650427 -0.19264522
-2.6991377 -4.8565874 -0.19264522
-2.7241635 -4.8655143 -0.19334321
-2.7394354 -4.8569322 -0.19334321
-2.7546806 -4.8483019 -0.19334321
