# .PCD v0.7 - Point Cloud Data file format
VERSION 0.7
FIELDS x y z
SIZE 4 4 4
TYPE F F F
COUNT 1 1 1
WIDTH 124
HEIGHT 1
VIEWPOINT 0 0 0 1 0 0 0
POINTS 124
DATA ascii
-11.601941 17.658974 0.12146901
-11.546405 17.695337 0.12146901
-11.452676 17.672791 0.12106585
-11.65609 18.243473 0.12446398
-11.47545 18.085831 0.12313928
-11.546567 18.32481 0.12452157
-11.564287 17.648628 0.0036756631
-11.514238 17.693254 0.0036774087
-11.543303 17.984043 0.0037227871
-11.583518 18.171995 0.0037542032
-11.577493 17.67557 -0.099379875
-11.516451 17.703472 -0.09933275
-11.585573 17.932762 -0.10041655
-11.599368 18.078491 -0.10102913
-11.601621 18.207613 -0.10154747
-11.525 17.696468 -0.2170649
-11.610492 17.950926 -0.21974218
-11.594236 18.175291 -0.22159567
-11.48797 17.112253 0.60335064
-11.304849 17.42473 0.60804141
-11.201303 17.38455 0.60540283
-11.197475 17.505791 0.6083346
-11.610518 17.275185 0.48232031
-11.556187 17.311577 0.48232031
-11.584065 17.712542 0.49044409
-11.292562 17.627329 0.4851056
-11.655652 17.199347 0.36558217
-11.676685 17.354046 0.36804992
-11.567637 17.546804 0.36981261
-11.446743 17.482672 0.36769736
-11.353611 17.459869 0.36646348
-11.596638 17.577324 0.24946453
-11.420506 18.048277 0.25302491
-11.46978 18.104771 -0.8629545
-11.625807 18.022415 -0.99454802
-11.480163 18.044538 -0.99176341
-11.418078 18.072073 -0.99129933
-11.451941 17.841827 -1.1089989
-11.476338 18.00404 -1.1168493
-11.387131 17.816189 -1.2205861
-11.4563 18.056198 -1.2344432
-13.065074 15.807327 -1.3092698
-13.021688 15.856003 -1.3099082
-12.950104 15.875903 -1.3079931
-12.96302 15.994023 -1.3143767
-12.887666 16.003582 -1.3118231
-12.84356 16.051785 -1.3124615
-12.749583 16.037382 -1.3079931
-12.798146 16.202627 -1.3182068
-12.673219 16.148567 -1.3105464
-12.769753 16.377142 -1.3258671
-12.70601 16.401403 -1.3245903
-12.660512 16.449146 -1.3252287
-12.599832 16.483112 -1.3245903
-12.505719 16.466995 -1.3201219
-12.490004 16.553989 -1.323952
-12.39602 16.537262 -1.3194835
-12.355931 16.592125 -1.3207601
-12.40468 16.767221 -1.3316122
-12.369682 16.830227 -1.3335273
-12.275537 16.812599 -1.3290589
-12.281277 16.931847 -1.3354424
-12.263039 17.018919 -1.3392725
-12.139784 16.959997 -1.3316122
-12.132722 17.063105 -1.336719
-12.093351 17.127695 -1.3386341
-11.982155 17.083916 -1.3322506
-12.082515 17.342518 -1.3494862
-11.948433 17.265526 -1.3405492
-11.97331 17.418091 -1.3494862
-12.002971 17.579226 -1.3590616
-11.835615 17.451689 -1.3462945
-11.786306 17.497063 -1.3469329
-11.75904 17.575466 -1.3501246
-11.797698 17.753599 -1.3609767
-11.730869 17.773916 -1.3597
-11.620238 17.727236 -1.3533163
-11.58628 17.797102 -1.3558698
-11.514047 17.808277 -1.3539547
-11.368648 17.712006 -1.3437411
-11.361243 17.82336 -1.3494862
-11.337235 17.909548 -1.3533163
-11.275599 17.93663 -1.3526779
-11.261492 18.039679 -1.357785
-11.283665 18.202179 -1.3673602
-11.242128 18.263027 -1.3692752
-11.215938 18.34934 -1.3731055
-11.20486 18.461252 -1.3788507
-11.21895 18.616009 -1.3877877
-11.157154 18.653111 -1.3877877
-11.169873 18.808176 -1.3967246
-11.060018 18.757225 -1.390341
-11.041389 18.860765 -1.3954479
-10.997131 18.921242 -1.3973629
-10.937636 18.955696 -1.3973629
-10.873072 18.981304 -1.3967246
-10.813384 19.015369 -1.3967246
-10.783043 19.101381 -1.4005548
-10.722979 19.135164 -1.4005548
-10.677374 19.194916 -1.4024699
-10.631495 19.254572 -1.404385
-10.566155 19.279125 -1.4037466
-10.49122 19.285931 -1.4018315
-10.425838 19.310013 -1.4011931
-10.3887 19.386648 -1.404385
-10.285553 19.339899 -1.3986397
-10.276008 19.469189 -1.4056617
-10.128026 19.34404 -1.3941712
-10.047464 19.487114 -1.3999165
-9.8525095 19.407499 -1.3897028
-11.64012 17.893396 -0.37191078
-11.612909 18.231964 -0.37662292
-11.518147 18.209215 -0.37540126
-11.591368 17.886726 -0.49392068
-11.459364 17.805365 -0.49067122
-11.481221 18.088017 -0.49647388
-11.602712 17.959179 -0.61103159
-11.422094 17.802029 -0.60444903
-11.586316 18.183472 -0.6161831
-11.513103 18.194439 -0.61532456
-11.620372 17.966095 -0.74580222
-11.428892 17.792265 -0.73707736
-11.566359 18.131451 -0.74964118
-11.500823 18.161261 -0.74929219
