# .PCD v0.7 - Point Cloud Data file format
VERSION 0.7
FIELDS x y z
SIZE 4 4 4
TYPE F F F
COUNT 1 1 1
WIDTH 101
HEIGHT 1
VIEWPOINT 0 0 0 1 0 0 0
POINTS 101
DATA ascii
-2.4319272 22.437798 0.12976277
-2.3533187 22.40596 0.12953238
-2.396862 22.371895 0.0039200094
-2.3947897 22.391985 -0.1059298
-2.4089015 22.379141 -0.231378
-2.3419189 22.456627 -0.2320988
-2.4427133 22.427267 0.66051936
-2.449115 22.38026 0.52177864
-2.3787963 22.387844 0.52177864
-2.3841143 22.329536 0.39519536
-2.3989861 22.359688 0.26643571
-2.3279305 22.397358 0.26679173
-2.263474 22.377138 -0.90567899
-3.1589909 22.837654 -1.0692667
-2.8925626 22.470118 -1.050703
-2.8279788 22.55888 -1.0544158
-2.3853815 22.449244 -1.0469903
-2.3138211 22.44669 -1.0465262
-3.3396938 22.44171 -1.1869795
-3.2907495 22.600323 -1.1948298
-3.1280491 22.472187 -1.1869795
-3.0802901 22.650126 -1.1958766
-3.0025511 22.610191 -1.1932597
-2.917397 22.510572 -1.1875027
-2.8404086 22.470089 -1.184886
-2.752707 22.340143 -1.177559
-2.6786084 22.34915 -1.177559
-2.6366138 22.565294 -1.1885495
-2.5848722 22.742147 -1.1974466
-2.4448891 22.164949 -1.1665684
-2.3933043 22.341324 -1.1754656
-2.3179498 22.299068 -1.1728488
-2.3099179 22.922276 -1.205297
-2.1942794 22.482159 -1.1817459
-2.1658542 22.936337 -1.205297
-2.0988326 23.042845 -1.2105306
-2.026422 23.049324 -1.2105306
-3.3044519 21.995678 -1.2840981
-3.2222893 21.917053 -1.2789017
-3.1609271 22.006676 -1.2835208
-3.1000941 22.075817 -1.286985
-3.0496855 22.223923 -1.2950685
-2.9626451 22.104755 -1.2875624
-2.9061165 22.212946 -1.2933363
-2.842629 22.271482 -1.2962232
-2.6057487 22.682343 -1.3181638
-2.5300443 22.65073 -1.3158542
-2.3922424 22.043198 -1.2800565
-2.332674 22.180084 -1.2875624
-2.2670271 22.227032 -1.2898721
-2.1824994 22.085014 -1.2812111
-2.1140578 22.1017 -1.2817886
-2.1118562 22.793802 -1.321628
-2.0114563 22.522249 -1.3054613
-1.9902536 23.105364 -1.3389494
-3.2850122 22.070927 -1.4248123
-3.1969213 21.952763 -1.4165137
-3.1392183 22.041733 -1.4216205
-3.0796099 22.120674 -1.426089
-2.9885435 21.972029 -1.4158754
-2.919493 21.98131 -1.4158754
-2.8709903 22.148718 -1.426089
-2.7951255 22.108124 -1.4228972
-2.7293293 22.146509 -1.4248123
-2.6644998 22.194607 -1.4273657
-2.6307502 22.510138 -1.4471549
-2.5780981 22.676937 -1.4573686
-2.5211279 22.813869 -1.4656671
-2.3982112 22.345404 -1.435026
-2.1486006 22.009838 -1.4120451
-2.0803878 22.026415 -1.4126835
-2.0193696 22.122284 -1.4184288
-1.9565183 22.248152 -1.426089
-2.3237758 22.426081 -0.39285368
-3.3969922 22.134254 -1.5905565
-3.3126001 22.046179 -1.583459
-3.2200949 21.898581 -1.5721029
-3.1598113 21.967827 -1.5763614
-3.0754955 21.868994 -1.5685543
-3.0081267 21.88843 -1.5692638
-2.9406781 21.907658 -1.5699736
-2.8835127 22.005798 -1.5763614
-2.8333538 22.16316 -1.5870076
-2.7660062 22.221926 -1.5905565
-2.679358 22.091875 -1.5806199
-2.6052496 22.060562 -1.577781
-2.5359344 22.068638 -1.577781
-2.5131478 22.492842 -1.6075906
-2.4123113 22.222965 -1.5877174
-2.3320141 22.131237 -1.5806199
-2.2624781 22.138453 -1.5806199
-2.1899686 22.115673 -1.5784907
-2.1223226 22.18239 -1.5827492
-2.0673413 22.347864 -1.5941052
-2.0095525 22.493343 -1.6040419
-2.3585336 22.420149 -0.5224697
-2.2890933 22.437391 -0.5227018
-2.3225415 22.380535 -0.64308572
-2.2612081 22.477234 -0.64566147
-2.3355117 22.394444 -0.7848897
-2.2701638 22.451385 -0.78663462
