# .PCD v0.7 - Point Cloud Data file format
VERSION 0.7
FIELDS x y z
SIZE 4 4 4
TYPE F F F
COUNT 1 1 1
WIDTH 66
HEIGHT 1
VIEWPOINT 0 0 0 1 0 0 0
POINTS 66
DATA ascii
-8.9337997 22.049128 -0.95807695
-8.8533077 22.049273 -0.95686781
-8.6951685 21.864985 -0.94759738
-8.6777506 22.022326 -0.95324022
-8.5794315 21.975027 -0.95001572
-8.5211763 22.029825 -0.95122498
-8.7507887 21.685709 -1.0845817
-8.6752024 21.694544 -1.0836536
-8.6769304 21.898134 -1.0924712
-8.5971422 21.89739 -1.091079
-8.3743124 22.143841 -1.0980403
-8.2801676 22.104563 -1.0947918
-8.0748205 21.775997 -1.0771563
-7.8961473 21.501207 -1.0623053
-7.9036903 21.73243 -1.0725154
-7.8039007 21.885157 -1.0776204
-7.858737 22.247284 -1.0943277
-8.8347569 21.633459 -1.2225679
-8.7966661 21.745958 -1.2272781
-8.7320185 21.782757 -1.2278014
-8.6709175 21.828644 -1.2288482
-8.4523687 21.474777 -1.2073905
-8.210165 21.653997 -1.2115774
-8.1420994 21.679684 -1.2115774
-8.0147715 21.546038 -1.2026802
-7.884635 21.413179 -1.1937832
-7.6488562 21.392504 -1.1885495
-7.5816145 21.416426 -1.1885495
-7.5275021 21.477839 -1.190643
-7.3372741 21.364145 -1.1817459
-7.289403 21.443821 -1.184886
-8.7853031 21.828793 -1.3585805
-8.5688334 21.485331 -1.3354851
-8.4938717 21.504341 -1.3349078
-8.4262753 21.530918 -1.3349078
-8.1233797 21.55102 -1.3297113
-8.0730867 21.623201 -1.3325983
-7.9705095 21.554813 -1.3268244
-7.8684478 21.485994 -1.3210506
-7.7532864 21.379204 -1.3129673
-7.780499 21.666561 -1.3291339
-7.8828502 22.170666 -1.3585805
-7.8854418 22.413305 -1.3718603
-7.8281183 22.475679 -1.3741697
-7.7477112 22.471844 -1.3724376
-7.6094122 22.297644 -1.3603126
-7.5904021 22.472786 -1.3695507
-8.8068151 21.562929 -1.4873713
-8.7277937 21.562738 -1.4854562
-8.6562395 21.591564 -1.4854562
-8.5883627 21.618652 -1.4854562
-8.5204058 21.645525 -1.4854562
-8.3906841 21.514145 -1.4746042
-8.2194099 21.676241 -1.4803493
-8.1302071 21.645906 -1.4765192
-7.9890418 21.474941 -1.4631138
-7.9871364 21.677835 -1.4752425
-7.8604627 21.554207 -1.4650288
-7.8130589 21.635111 -1.468859
-7.7719541 21.734716 -1.4739659
-7.803618 22.041224 -1.4931165
-7.6451473 21.811369 -1.4758809
-7.4783726 21.552462 -1.4567302
-7.420362 21.60416 -1.4586453
-7.3974528 21.759634 -1.4675822
-8.8065767 22.137741 -0.83060801
