# .PCD v0.7 - Point Cloud Data file format
VERSION 0.7
FIELDS x y z
SIZE 4 4 4
TYPE F F F
COUNT 1 1 1
WIDTH 282
HEIGHT 1
VIEWPOINT 0 0 0 1 0 0 0
POINTS 282
DATA ascii
-14.384809 -6.2635503 0.090137035
-14.358519 -6.198493 0.089849055
-14.368729 -6.1494179 0.089791454
-14.378774 -6.1003366 0.089733869
-14.407083 -6.0590158 0.089791454
-14.415769 -6.0123906 0.089733869
-14.444868 -5.9683743 0.089791454
-14.481017 -5.9330788 0.089906648
-14.528405 -5.8963161 0.090079434
-14.59324 -5.8693161 0.090367414
-14.639469 -5.8345594 0.0905402
-14.368375 -6.2276049 0.0027262042
-14.341933 -6.1626873 0.0027174775
-14.333624 -6.1058421 0.0027122416
-14.342465 -6.0593939 0.0027104963
-14.379877 -6.0220318 0.0027139867
-14.40796 -5.9806628 0.0027157322
-14.472917 -5.9543972 0.0027244589
-14.50081 -5.9126782 0.0027262042
-14.537856 -5.8745871 0.0027296948
-14.602654 -5.8474808 0.0027384216
-14.032549 -6.4100289 0.61534393
-14.043513 -6.3617945 0.61494434
-14.063431 -6.3176422 0.61494434
-14.092338 -6.277494 0.61534393
-14.121132 -6.2372227 0.61574352
-14.158964 -6.200841 0.61654264
-14.19671 -6.1642795 0.61734182
-14.234363 -6.1275458 0.61814094
-14.271927 -6.0906324 0.61894011
-14.300194 -6.0496573 0.6193397
-14.336511 -6.0149264 0.62013882
-14.374835 -5.9750152 0.620938
-14.429457 -5.947556 0.6225363
-14.486109 -5.9147677 0.62413454
-14.568436 -5.8979855 0.62693155
-14.634292 -5.8682194 0.62892944
-14.671229 -5.8295865 0.62972856
-14.717367 -5.7944403 0.63092732
-14.771732 -5.7652664 0.63252562
-14.326309 -6.1985011 -0.073368639
-14.308949 -6.137701 -0.073180154
-14.309754 -6.0848918 -0.073085904
-14.328799 -6.0399084 -0.073085904
-14.356932 -5.9987154 -0.073133029
-14.394185 -5.9612346 -0.073227271
-14.422093 -5.9197783 -0.073274389
-14.468409 -5.8857446 -0.073415764
-14.523929 -5.8552113 -0.073604248
-14.597971 -5.8318086 -0.073886976
-13.908247 -6.7594924 0.89205623
-13.770349 -6.5857611 0.8805086
-13.763915 -6.5296187 0.87877643
-13.748233 -6.4693327 0.87646687
-13.750401 -6.4176569 0.87531215
-13.779552 -6.3786259 0.87588954
-13.808595 -6.3394713 0.87646687
-13.846611 -6.3043408 0.87762165
-13.884542 -6.2690339 0.87877643
-13.9315 -6.2376304 0.8805086
-13.987519 -6.2100511 0.8828181
-14.043503 -6.1821775 0.88512766
-14.099448 -6.1540174 0.88743716
-14.155356 -6.1255627 0.88974673
-14.229568 -6.1046991 0.89321095
-14.294606 -6.0795159 0.8960979
-14.589569 -6.1510262 0.91341937
-14.682502 -6.1359801 0.91803843
-14.72015 -6.0974731 0.91919327
-14.710476 -6.0423818 0.91746104
-14.665711 -5.967207 0.91341937
-14.69261 -5.9274054 0.91399682
-14.702915 -5.8749423 0.91341937
-14.7213 -5.8287206 0.91341937
-14.720953 -5.775147 0.91226459
-14.711113 -5.7180095 0.91053247
-14.701057 -5.660995 0.90880036
-14.690791 -5.6040964 0.90706819
-14.68031 -5.5473213 0.90533602
-14.687357 -5.500236 0.90475869
-14.724235 -5.4584465 0.90591341
-14.797534 -5.4328241 0.90937775
-14.852054 -5.3999696 0.91168725
-14.915903 -5.3702106 0.91457415
-14.979713 -5.3400998 0.91746104
-15.024655 -5.3029933 0.91919327
-15.060088 -5.2623563 0.92034799
-15.085069 -5.2209177 0.92092538
-15.129726 -5.1832151 0.92265749
-15.174296 -5.1452875 0.92438972
-15.209311 -5.1039505 0.92554438
-15.22527 -5.0561419 0.92554438
-15.20402 -4.9931526 0.92323488
-15.276591 -4.9638948 0.92669916
-14.343416 -6.2068658 -0.16053329
-14.298511 -6.1341977 -0.15981248
-14.307445 -6.0878344 -0.15970951
-14.327555 -6.0403552 -0.15970951
-14.336187 -5.9939647 -0.15960655
-14.383704 -5.9578609 -0.15991546
-14.401318 -5.9151578 -0.15991546
-14.439381 -5.8748984 -0.1601214
-14.494866 -5.8444533 -0.16053329
-14.568878 -5.8211279 -0.16115113
-14.25201 -6.3751526 0.45676398
-14.271967 -6.330349 0.45676398
-14.282636 -6.2814517 0.45647082
-14.265655 -6.2205582 0.45529813
-14.294301 -6.1796784 0.45559129
-14.313643 -6.1347432 0.45559129
-14.36964 -6.1053915 0.45676398
-14.397959 -6.0641026 0.45705715
-14.426163 -6.0226922 0.45735031
-14.445011 -5.9773436 0.45735031
-14.482212 -5.939528 0.45793667
-14.527546 -5.907835 0.4588162
-14.611949 -5.8857965 0.46086839
-14.667497 -5.8546958 0.46204108
-14.788049 -5.8490663 0.46526602
-14.304879 -6.507967 0.36394525
-14.257421 -6.271328 0.36069575
-14.277052 -6.2265077 0.36069575
-14.296543 -6.1816225 0.36069575
-14.334268 -6.1445599 0.36115995
-14.344301 -6.0955839 0.36092785
-14.380748 -6.0607648 0.36139208
-14.399718 -6.0155544 0.36139208
-14.418545 -5.9702888 0.36139208
-14.455726 -5.9325576 0.36185628
-14.520594 -5.9059505 0.36301681
-14.585435 -5.8789988 0.36417738
-14.678102 -5.8628216 0.36603424
-14.295298 -6.2889719 0.2746273
-14.296655 -6.2360358 0.27427474
-14.306997 -6.1871252 0.27409849
-14.326365 -6.1421456 0.27409849
-14.34559 -6.0971098 0.27409849
-14.364674 -6.0520096 0.27409849
-14.411296 -6.0184102 0.2746273
-14.430133 -5.973104 0.2746273
-14.476578 -5.9391251 0.27515611
-14.513691 -5.901144 0.27550864
-14.55998 -5.8667278 0.27603745
-14.633035 -5.8457518 0.27709505
-14.298239 -6.2348695 0.18466546
-14.308575 -6.1859565 0.18454677
-14.300364 -6.1291642 0.18419074
-14.318485 -6.0867081 0.18419074
-14.33859 -6.039196 0.18419074
-14.356446 -5.9966226 0.18419074
-14.385493 -5.952805 0.18430942
-14.421597 -5.9176784 0.18454677
-14.468935 -5.8811116 0.18490282
-14.515169 -5.8468237 0.18525887
-14.589194 -5.8234181 0.18597095
-14.441885 -6.2764621 -0.63361251
-14.443181 -6.2231488 -0.63280642
-14.4351 -6.165957 -0.63159722
-14.417601 -6.1049819 -0.62998497
-14.399861 -6.0441737 -0.62837273
-14.426954 -6.0052657 -0.62877578
-14.437553 -5.953578 -0.62837273
-14.464402 -5.9145002 -0.62877578
-14.511714 -5.8777685 -0.62998497
-14.548651 -5.8395982 -0.63079113
-14.604056 -5.8086495 -0.63240337
-14.650118 -5.7737398 -0.63361251
-14.401342 -6.3347158 -0.72908771
-14.476106 -6.3134093 -0.7318722
-14.422523 -6.2361732 -0.72815949
-14.386958 -6.1672144 -0.72537494
-14.378683 -6.11026 -0.72398263
-14.378341 -6.0598102 -0.72305447
-14.397307 -6.0146074 -0.72305447
-14.416131 -5.9693494 -0.72305447
-14.444053 -5.9278255 -0.72351855
-14.490364 -5.8937111 -0.72491086
-14.5366 -5.8593678 -0.7263031
-14.582766 -5.8247881 -0.72769541
-14.656718 -5.801012 -0.73047996
-14.39611 -6.28544 -0.82115114
-14.351631 -6.2124186 -0.81748766
-14.316011 -6.1436791 -0.81434745
-14.326053 -6.0947633 -0.81382406
-14.326725 -6.0419698 -0.8127774
-14.354851 -6.0007801 -0.81330073
-14.382856 -5.9594765 -0.81382406
-14.419984 -5.9218493 -0.81487083
-14.457017 -5.8840432 -0.81591749
-14.503216 -5.849802 -0.81748766
-14.558617 -5.8190293 -0.81958109
-14.359365 -6.2822666 -0.90418065
-14.37903 -6.2371221 -0.90418065
-14.35269 -6.1722159 -0.90129369
-14.315834 -6.106122 -0.89782941
-14.299215 -6.0430822 -0.89551985
-14.326292 -6.0044856 -0.89609724
-14.364568 -5.9645953 -0.89725202
-14.382202 -5.9219489 -0.89725202
-14.420251 -5.8817568 -0.8984068
-14.466428 -5.8476419 -0.90013891
-14.512535 -5.8132911 -0.90187109
-14.576118 -5.7886143 -0.90475804
-14.450645 -6.3824682 -1.0079653
-14.452346 -6.3290234 -1.0066886
-14.453852 -6.2756357 -1.005412
-14.409341 -6.2025514 -1.0009434
-14.382869 -6.1376538 -0.99775171
-14.374511 -6.0807624 -0.99583656
-14.402744 -6.0394378 -0.99647492
-14.421648 -5.9941587 -0.99647492
-14.440407 -5.9488239 -0.99647492
-14.476469 -5.9135075 -0.99775171
-14.523747 -5.876708 -0.99966675
-14.542139 -5.831049 -0.99966675
-14.625297 -5.8111548 -1.0041353
-14.680619 -5.7798142 -1.0066886
-14.40195 -6.1934142 -0.27295563
-14.384551 -6.132443 -0.27225754
-14.376122 -6.0755343 -0.27173397
-14.385916 -6.0264754 -0.27155945
-14.41401 -5.9850907 -0.27173397
-14.432742 -5.9397764 -0.27173397
-14.459558 -5.9007092 -0.27190849
-14.506851 -5.8639774 -0.27243206
-14.562322 -5.8332605 -0.27313015
-14.627036 -5.8059411 -0.27400279
-14.482764 -6.4642758 -1.1256683
-14.333888 -6.1829772 -1.1079245
-14.325728 -6.1261482 -1.1057953
-14.317354 -6.0694275 -1.1036659
-14.335299 -6.0269208 -1.1036659
-14.372576 -5.9895339 -1.1050855
-14.400541 -5.9481587 -1.1057953
-14.428386 -5.9066706 -1.1065049
-14.493085 -5.8800673 -1.1100537
-14.548503 -5.8493972 -1.1128927
-14.613138 -5.8221259 -1.1164415
-14.386643 -6.1492333 -0.36231685
-14.378276 -6.0923038 -0.36162052
-14.396289 -6.0496163 -0.36162052
-14.387539 -5.9928217 -0.36092418
-14.415534 -5.9514103 -0.36115631
-14.443414 -5.9098783 -0.36138842
-14.480435 -5.8719916 -0.36185262
-14.535916 -5.8413849 -0.36278105
-14.591346 -5.8104911 -0.36370948
-14.665322 -5.786643 -0.36510211
-14.444695 -6.3127198 -1.2043718
-14.354664 -6.2197509 -1.1952072
-14.337485 -6.1588883 -1.1921524
-14.292545 -6.0864749 -1.1868064
-14.302409 -6.0376687 -1.1860427
-14.330506 -5.9965525 -1.1868064
-14.358483 -5.9553227 -1.1875701
-14.395567 -5.9177632 -1.1890975
-14.44179 -5.8837934 -1.1913887
-14.497188 -5.8533196 -1.1944435
-14.552535 -5.8225598 -1.1974983
-14.644911 -5.806201 -1.203608
-14.422663 -6.1865311 -0.44818524
-14.377632 -6.1138144 -0.44618183
-14.369134 -6.056973 -0.44532326
-14.369645 -6.0040941 -0.44475088
-14.3792 -5.9550986 -0.44446465
-14.397839 -5.909894 -0.44446465
-14.444112 -5.8759313 -0.44532326
-14.471772 -5.834259 -0.44560945
-14.527161 -5.803597 -0.44675425
-14.572198 -5.7715082 -0.44761282
-14.396796 -6.3376856 -0.54792207
-14.381292 -6.2233081 -0.5458281
-14.354844 -6.1584101 -0.54408312
-14.327067 -6.0962434 -0.54233819
-14.347204 -6.0486989 -0.54233819
-14.346643 -5.9983997 -0.54164016
-14.375691 -5.9546123 -0.54198915
-14.393295 -5.9119334 -0.54198915
-14.431337 -5.8716965 -0.54268712
-14.477523 -5.8375344 -0.54373413
-14.523637 -5.8031359 -0.54478115
-14.587255 -5.7784057 -0.54652613
