# .PCD v0.7 - Point Cloud Data file format
VERSION 0.7
FIELDS x y z
SIZE 4 4 4
TYPE F F F
COUNT 1 1 1
WIDTH 226
HEIGHT 1
VIEWPOINT 0 0 0 1 0 0 0
POINTS 226
DATA ascii
-11.689504 13.181991 -1.346422
-11.694174 13.271018 -1.3517679
-11.639288 13.292689 -1.3502406
-11.571295 13.299096 -1.3471856
-11.507572 13.314762 -1.3448944
-11.429036 13.303464 -1.3403122
-11.374238 13.324137 -1.3387848
-11.409713 13.451056 -1.3479494
-11.354547 13.471586 -1.346422
-11.29701 13.493874 -1.3448944
-11.209934 13.475635 -1.3395485
-11.123085 13.456983 -1.3342025
-11.080752 13.491862 -1.3342025
-11.107649 13.611588 -1.3426034
-11.077388 13.66191 -1.3441309
-10.946851 13.587928 -1.3334389
-10.904107 13.622253 -1.3334389
-10.867466 13.664246 -1.3342025
-10.818301 13.690496 -1.3334389
-10.744458 13.685199 -1.3296204
-10.695278 13.711025 -1.3288566
-10.664367 13.76032 -1.330384
-10.594353 13.764001 -1.3273292
-10.545002 13.789296 -1.3265654
-10.586067 13.933515 -1.3372575
-10.530228 13.950787 -1.3357301
-10.564103 14.087507 -1.3456582
-10.444813 14.01485 -1.3357301
-10.344902 13.977273 -1.3288566
-10.289131 13.993635 -1.3273292
-10.333322 14.146674 -1.3387848
-10.247844 14.122572 -1.3334389
-10.005216 13.879672 -1.3074727
-10.095061 14.097503 -1.3250381
-10.021827 14.088521 -1.3212194
-10.040804 14.209515 -1.3296204
-9.9502916 14.175697 -1.3235106
-9.9171143 14.223245 -1.3250381
-9.7872362 14.131369 -1.3135823
-9.7936487 14.235983 -1.3204558
-9.7632561 14.293084 -1.322747
-9.7543964 14.371491 -1.3273292
-9.7846832 14.519528 -1.3380212
-9.7833805 14.616489 -1.3441309
-9.6877422 14.572416 -1.3372575
-9.5759945 14.502925 -1.3280929
-9.5631876 14.582966 -1.3326751
-9.5608549 14.679781 -1.3387848
-9.4767866 14.651138 -1.3334389
-9.4630432 14.731175 -1.3380212
-9.3684597 14.685175 -1.3311478
-9.4236498 14.874574 -1.3456582
-9.2999697 14.78757 -1.3349663
-9.311554 14.909749 -1.3433671
-9.3014488 14.998245 -1.3487132
-9.25951 15.035885 -1.3494768
-9.3370495 15.269066 -1.3678058
-9.226943 15.196045 -1.3586413
-9.1482763 15.17372 -1.3540591
-9.2336903 15.424832 -1.3739156
-9.1546278 15.402333 -1.3693334
-9.0301933 15.302204 -1.3578776
-8.9719992 15.313291 -1.3563503
-9.0341196 15.531026 -1.3731518
-8.8855762 15.386629 -1.3578776
-8.8818207 15.492323 -1.364751
-8.8577595 15.563482 -1.3685696
-8.7450743 15.478371 -1.3586413
-8.7451668 15.592738 -1.3662784
-8.6040058 15.454601 -1.3517679
-8.6663103 15.682288 -1.3693334
-8.5978251 15.674464 -1.3662784
-8.5267382 15.667857 -1.3632237
-8.5295858 15.791074 -1.3716244
-8.5034885 15.861732 -1.375443
-8.4021053 15.791538 -1.3670422
-8.35711 15.826673 -1.3678058
-8.3119726 15.861683 -1.3685696
-8.2896996 15.940796 -1.3731518
-8.2532921 15.993344 -1.375443
-8.207552 16.028069 -1.3762068
-8.2023134 16.14267 -1.3838438
-8.1756592 16.223207 -1.3884261
-8.093441 16.18638 -1.38308
-8.020401 16.167065 -1.3792615
-7.9475589 16.147451 -1.375443
-7.9973955 16.378422 -1.3930084
-7.9241705 16.358599 -1.3891898
-7.8727417 16.383411 -1.3891898
-7.7954936 16.354057 -1.3846074
-7.7440796 16.378466 -1.3846074
-7.6671886 16.348549 -1.3800253
-7.6073833 16.354471 -1.3784978
-7.5768447 16.423563 -1.3823165
-7.4850311 16.366985 -1.375443
-7.3759294 16.263285 -1.364751
-7.508801 16.695601 -1.3991179
-7.3751054 16.536974 -1.3838438
-7.4763212 16.906599 -1.4128648
-7.3951478 16.866079 -1.4075189
-7.3063588 16.806927 -1.4006455
-7.3561034 17.067881 -1.4205019
-7.3768659 17.26512 -1.4350123
-11.308088 12.79134 -1.3884389
-11.241542 12.796843 -1.3851892
-11.227494 12.862138 -1.3884389
-11.16969 12.872806 -1.3860016
-11.103172 12.877629 -1.3827519
-11.088592 12.942729 -1.3860016
-11.026238 12.956652 -1.3835642
-11.011211 13.021681 -1.386814
-10.951021 13.033309 -1.3843766
-10.865323 13.014079 -1.3786898
-10.868915 13.101858 -1.3843766
-10.865722 13.182099 -1.3892514
-10.773754 13.154467 -1.3827519
-10.74495 13.203713 -1.3843766
-10.715947 13.252909 -1.3860016
-10.661777 13.270966 -1.3843766
-10.545449 13.210896 -1.3746276
-10.503892 13.243961 -1.3746276
-10.462234 13.276894 -1.3746276
-10.420471 13.309697 -1.3746276
-10.406858 13.383528 -1.3786898
-10.352577 13.400378 -1.3770648
-10.280099 13.393292 -1.3730028
-10.231929 13.417597 -1.3721904
-10.207777 13.473513 -1.3746276
-10.081517 13.394003 -1.3632536
-10.093087 13.497463 -1.3705654
-10.020927 13.489094 -1.3665034
-9.9962502 13.544572 -1.3689407
-9.9831009 13.616109 -1.3730028
-9.8992195 13.590996 -1.3673158
-9.8506308 13.613952 -1.3665034
-9.8136292 13.652925 -1.3673158
-9.7706871 13.68369 -1.3673158
-9.7564707 13.754972 -1.3713778
-9.7132082 13.785557 -1.3713778
-9.6755657 13.82417 -1.3721904
-9.6320868 13.8545 -1.3721904
-9.6200514 13.935587 -1.3770648
-9.5198841 13.883525 -1.3689407
-9.4930458 13.93808 -1.3713778
-9.4659567 13.992608 -1.3738152
-9.4441767 14.055373 -1.3770648
-9.4165621 14.109852 -1.3795022
-9.3281584 14.072888 -1.3730028
-9.2948551 14.118779 -1.3746276
-9.2177448 14.097845 -1.369753
-9.1625576 14.110015 -1.3681282
-9.1721783 14.222508 -1.3762525
-9.1328211 14.259647 -1.3770648
-9.1093664 14.321916 -1.3803146
-9.0245934 14.293039 -1.3746276
-9.0008154 14.355103 -1.3778772
-8.9346094 14.349461 -1.3746276
-8.9181967 14.418297 -1.3786898
-8.8753777 14.444694 -1.3786898
-8.8819427 14.569217 -1.3876265
-8.8154917 14.562936 -1.3843766
-8.7953596 14.63328 -1.3884389
-8.7033968 14.583797 -1.3811271
-8.6524611 14.60249 -1.3803146
-8.5762358 14.578049 -1.3754401
-8.5354204 14.613527 -1.3762525
-8.5594254 14.761003 -1.3876265
-8.4633121 14.701425 -1.3795022
-8.3973122 14.693323 -1.3762525
-8.3560276 14.728299 -1.3770648
-8.3146019 14.763165 -1.3778772
-8.2924881 14.832719 -1.3819395
-8.2361794 14.841266 -1.3803146
-8.1414537 14.77975 -1.3721904
-8.0923967 14.806666 -1.3721904
-8.0410929 14.823253 -1.3713778
-8.0605936 14.971326 -1.3827519
-7.9994378 14.970198 -1.3803146
-8.0223694 15.127357 -1.392501
-7.9608898 15.126019 -1.3900636
-7.9225516 15.168629 -1.3916886
-7.8748612 15.193442 -1.3916886
-7.8635354 15.289025 -1.398188
-7.8399506 15.368299 -1.4030627
-7.8006296 15.410638 -1.4046874
-7.7655869 15.461795 -1.4071248
-7.7125335 15.477191 -1.4063122
-7.677114 15.528154 -1.4087496
-7.6485591 15.586659 -1.4119992
-7.6082764 15.628536 -1.4136242
-7.6300197 15.806293 -1.4274354
-7.511497 15.686333 -1.4144366
-7.4322629 15.646825 -1.4087496
-7.3958077 15.697147 -1.4111868
-7.3506722 15.729337 -1.4119992
-7.3012228 15.752351 -1.4119992
-7.2974586 15.874842 -1.420936
-7.2640786 15.933968 -1.4241856
-7.1811576 15.884046 -1.4176862
-7.1678944 15.988391 -1.424998
-7.1135817 16.001722 -1.4241856
-7.0512266 15.996628 -1.4217484
-7.0248666 16.073505 -1.426623
-6.9743376 16.095493 -1.426623
-6.932713 16.146013 -1.4290603
-6.9092579 16.231916 -1.4347472
-6.6421781 16.310743 -1.43231
-6.6058154 16.368505 -1.4355597
-6.5691495 16.426199 -1.4388094
-6.5101771 16.428221 -1.4371846
-6.4192796 16.356928 -1.4290603
-6.3967319 16.45134 -1.4355597
-6.3342791 16.443447 -1.4331224
-6.2861381 16.47258 -1.4339348
-6.1921015 16.380356 -1.4241856
-6.1650538 16.465076 -1.4298728
-6.1340752 16.540438 -1.4347472
-6.0855131 16.568985 -1.4355597
-6.033432 16.58802 -1.4355597
-5.9981599 16.653786 -1.4396218
-5.9658833 16.728878 -1.4444963
-5.9331899 16.803936 -1.449371
-5.8511624 16.748236 -1.4428716
-5.7659674 16.672331 -1.4347472
-5.7232389 16.718655 -1.4371846
-5.6610985 16.708229 -1.4347472
