# .PCD v0.7 - Point Cloud Data file format
VERSION 0.7
FIELDS x y z
SIZE 4 4 4
TYPE F F F
COUNT 1 1 1
WIDTH 90
HEIGHT 1
VIEWPOINT 0 0 0 1 0 0 0
POINTS 90
DATA ascii
18.07036 -20.913706 0.15896371
18.047329 -21.012739 0.15930928
18.1749 -20.96977 0.0048363069
18.089355 -21.004036 0.0048310715
18.231136 -21.066185 -0.13109285
18.268467 -21.111252 -0.28708583
18.064026 -21.141979 -0.28595313
17.991049 -21.191002 -0.2858502
17.956617 -21.285639 -0.28636503
17.934612 -21.395597 -0.28708583
17.937687 -21.536367 -0.28821853
18.870359 -20.479258 0.81560808
18.812683 -20.545809 0.81590128
18.748043 -20.604809 0.81590128
18.669807 -20.648779 0.81531489
18.611528 -20.714764 0.81560808
18.553017 -20.780588 0.81590128
18.474371 -20.823818 0.81531489
18.428696 -20.904245 0.81619447
18.349754 -20.947002 0.81560808
18.876268 -20.480339 0.6457243
18.818588 -20.546911 0.64595646
18.774134 -20.628109 0.6466527
18.675705 -20.649916 0.6454922
18.597372 -20.693615 0.645028
18.538929 -20.759396 0.6452601
18.466984 -20.810057 0.645028
18.408129 -20.875467 0.6452601
18.296333 -20.880566 0.64363533
18.250341 -20.96056 0.64433169
18.17786 -21.010233 0.64409959
19.029566 -20.397068 0.49108577
18.792202 -20.262821 0.48650277
18.514618 -20.865608 0.49108577
18.39608 -20.86367 0.48967561
18.152555 -20.718304 0.48491636
18.061117 -20.745064 0.48421127
18.028561 -20.839512 0.48509261
17.989073 -20.926376 0.4857977
18.399551 -20.876638 0.32981062
18.169214 -20.746248 0.32684362
18.051445 -20.742872 0.32589418
18.018887 -20.837305 0.3264876
17.979397 -20.92415 0.32696229
18.237486 -21.399666 -1.1326026
18.086205 -21.357744 -1.1273627
18.012583 -21.406815 -1.1269597
17.938831 -21.455633 -1.1265566
17.88674 -21.538059 -1.1277658
17.860929 -21.63726 -1.1301842
17.843571 -21.755062 -1.1334087
18.277542 -21.395548 -1.3054893
18.06546 -21.418341 -1.2999202
17.98525 -21.459679 -1.298992
17.924137 -21.52375 -1.2994561
17.89464 -21.626129 -1.3022406
17.883713 -21.75168 -1.3064175
18.278671 -21.383747 -1.4722104
18.073109 -21.414221 -1.4664534
17.992912 -21.455591 -1.4654068
17.931812 -21.519684 -1.4659301
17.895958 -21.614372 -1.4685469
17.872374 -21.724474 -1.4722104
18.158649 -21.202105 -0.48657307
18.046581 -21.205757 -0.48535141
17.98633 -21.269981 -0.48552594
17.932287 -21.341688 -0.48587501
17.890789 -21.428614 -0.48657307
17.877089 -21.557079 -0.4881438
18.258986 -21.283434 -0.65012777
18.101227 -21.234182 -0.6468783
18.04089 -21.298573 -0.6471104
17.961012 -21.339848 -0.6466462
17.932369 -21.442181 -0.64803886
17.896868 -21.536854 -0.64919937
17.873678 -21.646931 -0.65082407
18.221121 -21.323841 -0.80192524
18.076412 -21.289537 -0.79849094
18.015884 -21.353863 -0.7987771
17.942289 -21.402695 -0.79849094
17.894154 -21.481998 -0.79934955
17.85207 -21.568913 -0.80049431
17.835011 -21.686657 -0.80278391
18.229282 -21.335373 -0.97858185
18.084566 -21.3011 -0.97439396
18.030441 -21.373089 -0.97509187
17.950371 -21.414307 -0.97439396
17.902189 -21.493635 -0.97544092
17.86643 -21.588274 -0.9771859
17.855635 -21.713779 -0.98032689
