# .PCD v0.7 - Point Cloud Data file format
VERSION 0.7
FIELDS x y z
SIZE 4 4 4
TYPE F F F
COUNT 1 1 1
WIDTH 124
HEIGHT 1
VIEWPOINT 0 0 0 1 0 0 0
POINTS 124
DATA ascii
-7.3486457 13.489525 -1.4483253
-7.3062286 13.512546 -1.4483253
-7.2496119 13.509119 -1.445502
-7.2165003 13.5494 -1.4473842
-7.1878662 13.598404 -1.4502075
-7.1451082 13.620918 -1.4502075
-7.1160836 13.669785 -1.4530307
-7.0844254 13.71984 -1.4558539
-7.0412865 13.74203 -1.4558539
-6.9709911 13.710845 -1.4502075
-6.9368553 13.750452 -1.4520895
-6.8936248 13.772176 -1.4520895
-6.8503222 13.793766 -1.4520895
-6.7981496 13.79736 -1.4502075
-6.7591472 13.827592 -1.4511485
-6.7200184 13.857715 -1.4520895
-6.6807709 13.887727 -1.4530307
-6.641397 13.917631 -1.4539717
-6.6079898 13.966572 -1.456795
-6.5386868 13.933196 -1.4511485
-6.5495353 14.070985 -1.4633826
-6.4802442 14.037267 -1.4577361
-6.4153733 14.012303 -1.4530307
-6.3861322 14.058464 -1.4558539
-6.3599296 14.124947 -1.4605594
-6.3195877 14.153946 -1.4615004
-6.2791219 14.182833 -1.4624416
-6.2385406 14.211602 -1.4633826
-6.1834297 14.213957 -1.4615004
-6.1624217 14.288153 -1.4671469
-6.0979161 14.261681 -1.4624416
-6.0453067 14.262437 -1.4605594
-5.8392539 14.401758 -1.4652648
-5.8237019 14.493923 -1.4727935
-5.7633934 14.475155 -1.4690291
-5.7581172 14.595045 -1.479381
-5.6988077 14.586245 -1.4765577
-5.6493564 14.594794 -1.4756166
-5.6106153 14.631058 -1.4774989
-5.5752406 14.676528 -1.480322
-5.5211339 14.665059 -1.4774989
-5.4550753 14.636647 -1.4727935
-5.4297686 14.709745 -1.4784399
-5.3801103 14.717381 -1.4774989
-5.3168859 14.68741 -1.4727935
-5.2639947 14.6853 -1.4709113
-5.2285929 14.740202 -1.4746757
-5.1624455 14.700203 -1.4690291
-5.1489644 14.810373 -1.4784399
-5.1088943 14.845302 -1.480322
-5.0525932 14.83301 -1.4774989
-4.9518447 14.688452 -1.4615004
-4.7326598 14.802346 -1.4652648
-4.7011619 14.864596 -1.4699702
-4.6544385 14.879292 -1.4699702
-4.6076727 14.893841 -1.4699702
-4.5582571 14.909039 -1.4699702
-4.5140014 14.922498 -1.4699702
-4.4699526 14.946143 -1.4709113
-4.4175401 14.951338 -1.4699702
-4.3481956 14.888698 -1.4624416
-4.3179827 14.95967 -1.468088
-4.2819028 15.011452 -1.4718523
-4.240128 15.043994 -1.4737345
-4.2356296 15.210676 -1.4887918
-4.1111865 14.955877 -1.4624416
-4.058959 14.949505 -1.4605594
-4.0636663 15.14416 -1.4784399
-4.0057731 15.128682 -1.4756166
-3.9531806 15.121931 -1.4737345
-3.9131291 15.163192 -1.4765577
-3.8384035 15.069297 -1.4662058
-3.7813232 15.042664 -1.4624416
-3.79405 15.296018 -1.4859686
-3.7364926 15.269185 -1.4822043
-3.6908457 15.290524 -1.4831452
-3.668191 15.408569 -1.4934973
-3.6197674 15.420017 -1.4934973
-3.5623081 15.392521 -1.4897329
-3.5205879 15.432752 -1.4925561
-3.469902 15.434023 -1.4916151
-3.4364951 15.512882 -1.4982027
-3.3707292 15.445794 -1.4906739
-3.3257792 15.486085 -1.4934973
-3.2812319 15.515937 -1.4953793
-3.2182455 15.457947 -1.4887918
-3.1656654 15.448476 -1.4869096
-3.1210616 15.477861 -1.4887918
-3.0724149 15.487592 -1.4887918
-3.0180166 15.467855 -1.4859686
-2.9675307 15.467484 -1.4850274
-2.9115319 15.437599 -1.4812632
-2.8775542 15.524977 -1.4887918
-2.8242698 15.52464 -1.4878507
-2.7860124 15.592235 -1.4934973
-2.7370164 15.60091 -1.4934973
-2.6913788 15.629052 -1.4953793
-2.6422591 15.637431 -1.4953793
-2.5931218 15.645655 -1.4953793
-2.5455592 15.663549 -1.4963205
-2.5057566 15.730456 -1.501967
-2.4624817 15.777595 -1.5057313
-2.4144042 15.795095 -1.5066724
-2.3649616 15.822704 -1.5085545
-2.325352 15.89901 -1.5151422
-2.2810466 15.945655 -1.5189064
-2.2157393 15.84429 -1.5085545
-2.1808083 15.959673 -1.5189064
-2.1161392 15.8579 -1.5085545
-2.0923188 16.041798 -1.525494
-2.0516913 16.147406 -1.5349048
-1.9948109 16.104374 -1.5301995
-1.9549742 16.199512 -1.5386692
-1.9087342 16.245123 -1.5424335
-1.8667628 16.330166 -1.5499622
-1.8352953 16.51405 -1.5669016
-1.7823362 16.509834 -1.5659605
-1.737747 16.58466 -1.572548
-1.6856383 16.590036 -1.572548
-1.636474 16.654982 -1.5781947
-1.5841451 16.660042 -1.5781947
-1.5336202 16.684761 -1.5800767
-1.4803149 16.679581 -1.5791357
-1.4313178 16.723825 -1.5829
