# .PCD v0.7 - Point Cloud Data file format
VERSION 0.7
FIELDS x y z
SIZE 4 4 4
TYPE F F F
COUNT 1 1 1
WIDTH 496
HEIGHT 1
VIEWPOINT 0 0 0 1 0 0 0
POINTS 496
DATA ascii
-12.69949 -22.307589 0.14761738
-12.764535 -22.258905 0.14755979
-12.854401 -22.253336 0.14779018
-12.940472 -22.249678 0.14802055
-13.236409 -22.272888 0.14899968
-13.447075 -22.298285 0.14974843
-13.543006 -22.298668 0.15003639
-13.633857 -22.29014 0.15026678
-13.73138 -22.300686 0.15061235
-13.854052 -22.342436 0.15118831
-13.950647 -22.341215 0.15147629
-14.042051 -22.331144 0.15170668
-14.138876 -22.329168 0.15199465
-14.241201 -22.335236 0.15234022
-14.365308 -22.374544 0.15291618
-14.462665 -22.371298 0.15320416
-14.571051 -22.384426 0.15360732
-14.668701 -22.380362 0.1538953
-14.771976 -22.384253 0.15424088
-14.882572 -22.406973 0.15470164
-14.997349 -22.426617 0.15516241
-15.337655 -22.474276 0.15648711
-15.43649 -22.467196 0.15677509
-15.546805 -22.476166 0.15717825
-15.657326 -22.484667 0.15758142
-15.779532 -22.509071 0.15809977
-15.884755 -22.508417 0.15844536
-16.001709 -22.523626 0.15890612
-16.124729 -22.546459 0.15942448
-16.248049 -22.568739 0.15994284
-16.371668 -22.590467 0.16046119
-16.477909 -22.587402 0.16080678
-16.590208 -22.591953 0.16120994
-16.708641 -22.604061 0.1616707
-16.827314 -22.61565 0.16213147
-16.940231 -22.61871 0.16253464
-17.071386 -22.645241 0.1631106
-17.401958 -22.644962 0.1642625
-17.538137 -22.666231 0.16483845
-17.660583 -22.685122 0.16535681
-17.737934 -22.637398 0.16541441
-12.758263 -22.309479 0.0044785147
-12.933311 -22.289425 0.0044907317
-13.135148 -22.32205 0.0045134211
-13.446728 -22.357765 0.0045465822
-13.537622 -22.349627 0.0045535639
-13.639011 -22.35821 0.0045640357
-13.741919 -22.377295 0.0045762532
-13.843705 -22.385044 0.004586725
-13.950963 -22.400864 0.0045989421
-14.042516 -22.390816 0.0046059238
-14.144824 -22.397322 0.0046163956
-14.247312 -22.403406 0.0046268678
-14.366152 -22.43433 0.0046425755
-14.469072 -22.439516 0.0046530478
-14.561276 -22.4275 0.004660029
-14.664491 -22.431868 0.0046705012
-14.778871 -22.452513 0.0046844636
-14.882476 -22.45599 0.0046949354
-14.991799 -22.467354 0.004707153
-15.416019 -22.494335 0.0047525312
-15.52636 -22.503412 0.0047647487
-15.631206 -22.503805 0.0047752205
-15.759127 -22.536543 0.004792674
-15.864384 -22.535988 0.0048031458
-15.981356 -22.551311 0.0048171082
-16.088835 -22.560791 0.0048293257
-16.198557 -22.556051 0.004839798
-16.312263 -22.572735 0.0048537604
-16.424273 -22.577986 0.0048659774
-16.536474 -22.582756 0.004878195
-16.664679 -22.600235 0.0048939027
-16.777313 -22.603981 0.0049061202
-16.890137 -22.607244 0.0049183378
-17.005205 -22.620981 0.0049323002
-17.321064 -22.594631 0.0049619712
-17.471371 -22.643032 0.0049846601
-17.616018 -22.682814 0.0050056041
-13.715217 -22.49753 1.0520784
-13.733529 -22.36919 1.0480826
-13.819507 -22.351429 1.0492814
-13.916073 -22.350307 1.0512792
-14.018078 -22.357265 1.0536766
-14.120264 -22.363804 1.056074
-14.224086 -22.380833 1.058871
-14.326653 -22.386524 1.0612684
-14.429397 -22.391794 1.0636659
-14.532316 -22.396639 1.0660634
-14.635406 -22.401056 1.0684608
-14.77712 -22.463472 1.0736552
-15.178777 -22.916697 1.0976297
-15.27288 -22.902145 1.099228
-15.60614 -22.930632 1.107619
-15.711998 -22.930941 1.1100165
-15.863416 -22.996601 1.1156106
-15.924181 -22.930239 1.1148114
-15.92169 -22.773653 1.1096169
-15.998909 -22.731691 1.1100165
-16.029797 -22.624254 1.1072195
-16.065971 -22.524982 1.104822
-16.173529 -22.534029 1.107619
-16.279362 -22.531696 1.1100165
-16.397097 -22.545078 1.1132131
-16.520981 -22.566004 1.1168092
-16.633297 -22.570288 1.1196063
-16.733896 -22.558041 1.1216042
-16.858501 -22.577404 1.1252004
-16.971382 -22.580235 1.1279974
-12.773335 -22.289007 -0.12086741
-13.145066 -22.292673 -0.12176273
-13.452637 -22.330534 -0.12265804
-13.569413 -22.365103 -0.12308213
-13.655252 -22.347961 -0.1232235
-13.762082 -22.364565 -0.12355335
-13.863882 -22.372217 -0.12383608
-13.965867 -22.379452 -0.12411882
-14.073355 -22.394732 -0.12444866
-14.181075 -22.409557 -0.12477852
-14.272903 -22.398626 -0.124967
-14.370206 -22.395756 -0.12520261
-14.478484 -22.409292 -0.12553246
-14.570628 -22.397224 -0.12572096
-14.679279 -22.409891 -0.12605081
-14.788153 -22.422096 -0.12638067
-14.891712 -22.42551 -0.12666339
-14.997086 -22.439421 -0.12699324
-15.348783 -22.503603 -0.12817128
-15.44205 -22.488247 -0.12835978
-15.541058 -22.480749 -0.12859538
-15.663018 -22.505684 -0.12901948
-15.773814 -22.513691 -0.12934934
-15.879051 -22.513054 -0.12963207
-15.984439 -22.511976 -0.12991479
-16.097677 -22.529537 -0.13029177
-16.220934 -22.551912 -0.13071586
-16.326893 -22.549437 -0.1309986
-16.450665 -22.570763 -0.1314227
-16.560926 -22.564453 -0.13170542
-16.679274 -22.576654 -0.13208239
-16.791891 -22.580311 -0.13241224
-16.906748 -22.59444 -0.13278922
-17.019764 -22.597126 -0.13311908
-17.359903 -22.602253 -0.13410863
-17.51034 -22.650448 -0.13472122
-17.624401 -22.650568 -0.13505107
-17.72014 -22.626574 -0.13523956
-17.797325 -22.57865 -0.13528667
-12.68742 -22.290401 -0.26371118
-12.767333 -22.267782 -0.26391715
-12.868357 -22.290415 -0.26463795
-13.063768 -22.304022 -0.26577064
-13.164269 -22.314539 -0.26638848
-13.451443 -22.317926 -0.26793304
-13.547442 -22.318293 -0.26844791
-13.659228 -22.343866 -0.2692717
-13.766065 -22.360443 -0.2699925
-13.857327 -22.351076 -0.2704044
-13.969857 -22.375278 -0.27122816
-14.062799 -22.376055 -0.271743
-14.165117 -22.382458 -0.27236083
-14.278369 -22.405298 -0.27318463
-14.364894 -22.385576 -0.27349353
-14.473148 -22.39912 -0.27421433
-14.576176 -22.403824 -0.27483216
-14.690336 -22.424828 -0.27565596
-14.788251 -22.420298 -0.27617082
-14.897349 -22.43203 -0.27689162
-15.001106 -22.434984 -0.27750945
-15.446091 -22.483692 -0.28049564
-15.545096 -22.476171 -0.28101048
-15.661354 -22.492865 -0.28183427
-15.766388 -22.492676 -0.28245211
-15.888874 -22.516552 -0.28337884
-15.909283 -22.404097 -0.28255507
-15.799273 -22.101864 -0.27936295
-15.890889 -21.937382 -0.27853915
-15.989194 -21.927742 -0.27905402
-16.093513 -21.925764 -0.27967185
-16.203922 -21.931385 -0.28039265
-16.332432 -21.960596 -0.28142238
-16.449295 -21.973207 -0.28224617
-16.54834 -21.961346 -0.28276101
-17.296968 -22.509981 -0.29192552
-17.496101 -22.621613 -0.29408795
-17.542507 -22.534977 -0.29367605
-17.440491 -22.259398 -0.29079282
-17.429823 -22.102436 -0.28945419
-17.50539 -22.055403 -0.28955716
-17.605808 -22.039356 -0.29007202
-17.718826 -22.038481 -0.29079282
-17.84704 -22.063545 -0.29182255
-13.330297 -22.773739 0.77280474
-13.666978 -22.690067 0.77573651
-13.715505 -22.45019 0.77045935
-13.765019 -22.372936 0.76928669
-13.862911 -22.382988 0.77104574
-13.970177 -22.398701 0.77309793
-14.067049 -22.397032 0.77456385
-14.16939 -22.403421 0.77632284
-14.266541 -22.400957 0.7777887
-14.36921 -22.406519 0.77954781
-14.466631 -22.403259 0.78101361
-14.585964 -22.433132 0.78365219
-14.683735 -22.429018 0.78511804
-14.974107 -22.71665 0.79684502
-15.189067 -22.886061 0.8044675
-15.334614 -22.957275 0.80857193
-15.629092 -22.92738 0.81267637
-15.729316 -22.919378 0.81414217
-15.869406 -22.96855 0.81766027
-15.935779 -22.910374 0.81736714
-15.996211 -22.843819 0.81678075
-16.033354 -22.744427 0.81502175
-16.052679 -22.620569 0.81238317
-16.10043 -22.537489 0.81121051
-16.229496 -22.567959 0.81414217
-16.341335 -22.573547 0.81619447
-16.447481 -22.570576 0.81795347
-16.553772 -22.567158 0.81971252
-16.672073 -22.57938 0.8220579
-16.796576 -22.599106 0.82469642
-16.909393 -22.602261 0.82674867
-17.022398 -22.604929 0.82880086
-13.399874 -22.726566 0.61160439
-13.515562 -22.588083 0.61021179
-13.762994 -22.367783 0.60881913
-13.864787 -22.375425 0.61021179
-13.961473 -22.374166 0.61137235
-14.068924 -22.389452 0.61299711
-14.181953 -22.412729 0.61485398
-14.279152 -22.410223 0.61601448
-14.381873 -22.415741 0.61740714
-14.484771 -22.420835 0.61879981
-14.587841 -22.425503 0.62019241
-14.702037 -22.446472 0.62204927
-15.047648 -22.817484 0.63365471
-15.174553 -22.853388 0.63597578
-15.659339 -22.960949 0.64433169
-15.787977 -22.994059 0.6466527
-15.865821 -22.95257 0.64688486
-15.880752 -22.820549 0.64456373
-15.98678 -22.819677 0.64595646
-16.029585 -22.728489 0.64479584
-16.031466 -22.580193 0.64201057
-16.125574 -22.562252 0.64293897
-16.237242 -22.568291 0.64456373
-16.339306 -22.568605 0.64595646
-16.457226 -22.5818 0.64781326
-16.579332 -22.591585 0.64967012
-16.695745 -22.592764 0.65129489
-16.816389 -22.615335 0.65338385
-16.929283 -22.618422 0.65500861
-12.923 -22.705894 0.45988613
-12.949508 -22.58712 0.45829973
-13.42137 -22.589542 0.46253017
-13.70631 -22.581703 0.46499795
-13.725032 -22.453228 0.46323523
-13.774536 -22.375942 0.46253017
-13.871107 -22.375046 0.46341151
-13.978399 -22.390724 0.46464539
-14.075284 -22.389023 0.46552676
-14.182989 -22.403828 0.46676064
-14.274802 -22.392881 0.4674657
-14.388293 -22.415236 0.46887586
-14.496639 -22.428701 0.47010976
-14.5943 -22.424946 0.47099108
-14.703043 -22.437525 0.47222495
-14.933159 -22.633236 0.47733679
-15.08322 -22.713762 0.47998083
-15.221196 -22.766001 0.48209602
-15.636294 -22.762476 0.48615023
-15.741853 -22.762581 0.48720786
-15.876134 -22.80327 0.48914683
-15.993607 -22.818781 0.49055696
-16.024862 -22.711239 0.48932308
-16.045864 -22.598375 0.48791295
-16.116779 -22.547855 0.48791295
-16.234257 -22.562035 0.48932308
-16.357847 -22.583796 0.49090949
-16.464064 -22.580767 0.49196711
-16.586197 -22.590517 0.49337727
-16.70463 -22.602623 0.49478742
-16.807419 -22.601095 0.49584502
-16.926277 -22.612215 0.49725518
-12.91087 -22.346163 0.30583733
-12.996103 -22.331415 0.30619338
-13.287793 -22.345436 0.30809224
-13.505427 -22.389923 0.30987242
-13.580894 -22.355928 0.30999112
-13.682382 -22.364325 0.31070322
-13.752574 -22.32123 0.31070322
-13.854272 -22.328888 0.31141528
-13.945553 -22.319168 0.31188998
-14.043666 -22.328474 0.31260207
-14.151207 -22.343369 0.31343284
-14.248223 -22.340948 0.31402624
-14.339959 -22.329727 0.31450096
-14.448059 -22.343336 0.3153317
-14.550927 -22.348106 0.31604376
-14.659452 -22.360811 0.31687453
-14.75718 -22.356369 0.31746793
-14.882706 -22.393162 0.31865472
-14.975233 -22.379534 0.31912944
-15.292657 -22.394279 0.32138437
-15.396934 -22.395557 0.32209644
-15.501369 -22.3964 0.3228085
-15.617399 -22.413214 0.32375795
-15.733686 -22.42952 0.32470739
-15.832922 -22.420816 0.32530078
-15.945729 -22.438936 0.32625023
-16.062696 -22.453783 0.32719967
-16.168226 -22.451889 0.32791173
-16.332607 -22.530499 0.32981062
-16.456371 -22.551764 0.33087873
-16.556746 -22.540243 0.33147213
-16.6691 -22.54439 0.3323029
-16.775673 -22.540033 0.33301497
-16.90637 -22.567234 0.33420175
-17.025358 -22.577871 0.3351512
-17.515867 -22.630962 0.33918631
-12.759946 -22.214987 -1.0318371
-12.824673 -22.166143 -1.0314342
-12.915522 -22.171167 -1.0334494
-12.91313 -21.998943 -1.0274036
-12.841137 -21.728251 -1.0165209
-12.894008 -21.662039 -1.0153116
-13.374232 -21.686493 -1.0261943
-13.473914 -21.695305 -1.0286127
-13.589673 -21.729122 -1.0322403
-13.689809 -21.737059 -1.0346587
-13.790127 -21.744577 -1.037077
-12.808822 -22.26405 -0.44765422
-12.908772 -22.275612 -0.44870135
-12.953492 -21.727428 -0.44084778
-13.154231 -21.735146 -0.44276753
-13.239464 -21.730181 -0.44346565
-13.339028 -21.73962 -0.44451278
-13.424485 -21.733976 -0.4452109
-13.534931 -21.759624 -0.44660708
-13.629753 -21.759369 -0.4474797
-13.724706 -21.75873 -0.44835231
-14.189557 -22.340145 -0.46126711
-14.297365 -22.354429 -0.46248877
-14.38917 -22.343029 -0.46318686
-14.497359 -22.356445 -0.46440852
-14.60031 -22.361031 -0.46545568
-14.708923 -22.373543 -0.46667734
-14.812242 -22.377253 -0.46772447
-14.917366 -22.391459 -0.46894613
-15.009906 -22.377707 -0.46964425
-15.454403 -22.426111 -0.47470543
-15.558968 -22.426746 -0.47575259
-15.657963 -22.418747 -0.4766252
-15.76856 -22.426706 -0.47784686
-15.890912 -22.450518 -0.47941759
-15.920761 -22.343477 -0.47819594
-15.868529 -22.122709 -0.47453091
-15.850179 -21.951138 -0.47191304
-15.936694 -21.925501 -0.47243664
-16.058617 -21.94796 -0.47400737
-16.151199 -21.929609 -0.47470543
-16.255732 -21.92696 -0.47575259
-16.360407 -21.92387 -0.47679973
-16.489235 -21.95232 -0.47854498
-16.606346 -21.964224 -0.47994119
-17.463211 -22.504345 -0.49652094
-17.591419 -22.531254 -0.49826619
-17.52006 -22.295036 -0.49425215
-17.503206 -22.130077 -0.49180883
-17.522835 -22.01239 -0.49041259
-17.880695 -22.032619 -0.49460119
-18.013056 -22.053789 -0.49634641
-12.842506 -22.195377 -0.5944224
-12.871905 -22.085819 -0.5925656
-12.906919 -21.68231 -0.5849061
-13.228752 -21.745329 -0.59001243
-13.297002 -21.703661 -0.59001243
-13.398072 -21.723679 -0.59163719
-13.503169 -21.740932 -0.5932619
-13.603208 -21.74926 -0.5946545
-13.68745 -21.731798 -0.59535086
-14.071534 -22.186819 -0.60904509
-14.227252 -22.277319 -0.61275876
-14.340423 -22.299786 -0.61461562
-14.448442 -22.313368 -0.61624038
-14.551227 -22.318115 -0.61763299
-14.654184 -22.322439 -0.61902565
-14.768337 -22.343016 -0.62088251
-14.866147 -22.338123 -0.62204301
-14.964073 -22.332838 -0.62320352
-15.074982 -22.354654 -0.62506038
-15.398334 -22.376307 -0.62970245
-15.514096 -22.393566 -0.63155931
-15.618682 -22.393917 -0.63295192
-15.734911 -22.410198 -0.63480878
-15.839857 -22.409641 -0.63620144
-15.915977 -22.367914 -0.63643354
-15.88139 -22.171503 -0.63225567
-15.874959 -22.016075 -0.62923825
-15.887375 -21.896049 -0.62714928
-16.026838 -21.942913 -0.62993461
-16.117285 -21.913807 -0.63063091
-16.21961 -21.900412 -0.63179141
-16.332306 -21.916323 -0.63364828
-16.443066 -21.920889 -0.63527298
-16.574278 -21.959787 -0.6378262
-17.40601 -22.469015 -0.65894777
-17.550274 -22.508837 -0.66173309
-17.509811 -22.312019 -0.65755516
-17.499273 -22.154905 -0.6545378
-17.512798 -22.029387 -0.65244883
-17.644375 -22.052324 -0.6547699
-17.992903 -22.066381 -0.66010833
-12.788149 -22.153378 -0.73123449
-12.868893 -22.141262 -0.7320931
-12.857576 -21.962709 -0.72751397
-12.976755 -21.694729 -0.72264862
-13.274468 -21.724991 -0.72780019
-13.353131 -21.700205 -0.72837251
-13.437037 -21.683638 -0.72923112
-13.547433 -21.709156 -0.73152071
-13.631525 -21.691877 -0.73237932
-13.737025 -21.708071 -0.73438269
-14.143607 -22.195866 -0.75241309
-14.272655 -22.243862 -0.75556129
-14.385866 -22.266079 -0.75785089
-14.493906 -22.279423 -0.75985426
-14.591216 -22.275585 -0.76128525
-14.699654 -22.288046 -0.76328868
-14.80831 -22.300045 -0.76529205
-14.913296 -22.31418 -0.76729542
-15.016809 -22.316975 -0.76901257
-15.120489 -22.31934 -0.77072978
-15.449548 -22.348505 -0.7767399
-15.553942 -22.349087 -0.77845711
-15.66423 -22.357414 -0.78046048
-15.780487 -22.373438 -0.78275001
-15.891212 -22.380802 -0.78475344
-15.928489 -22.292889 -0.78332245
-15.887538 -22.088564 -0.77788472
-15.874774 -21.925196 -0.77387792
-15.95535 -21.891375 -0.77445036
-16.047697 -21.873377 -0.77559507
-16.161728 -21.876316 -0.7775985
-16.266167 -21.873558 -0.77931571
-16.372919 -21.881222 -0.78131908
-16.489693 -21.893549 -0.78360868
-16.612747 -21.913324 -0.78618443
-17.470001 -22.452263 -0.81337321
-17.608253 -22.483828 -0.81652135
-17.536467 -22.247852 -0.80993879
-17.531713 -22.098688 -0.80650449
-17.563629 -21.996632 -0.80478728
-17.682741 -22.003677 -0.80707681
-18.031208 -22.017025 -0.81365943
-12.705482 -22.160084 -0.89063513
-12.791172 -22.156904 -0.89203113
-12.865743 -22.125248 -0.89238012
-12.824028 -21.895025 -0.88470227
-12.806393 -21.708317 -0.87876934
-13.344312 -21.675816 -0.88749421
-13.433414 -21.667757 -0.88889015
-13.554363 -21.710209 -0.89238012
-13.639999 -21.703737 -0.89377606
-13.734844 -21.703001 -0.8955211
-14.162928 -22.224346 -0.91890377
-14.27587 -22.247023 -0.92169571
-14.394521 -22.277601 -0.92483664
-14.491695 -22.274147 -0.92658162
-14.599947 -22.287022 -0.92902458
-14.702919 -22.291094 -0.93111861
-14.81712 -22.311386 -0.93391055
-14.92048 -22.314568 -0.93600452
-15.018423 -22.309029 -0.93774945
-15.133305 -22.327909 -0.94054139
-15.462481 -22.35688 -0.94787031
-15.566915 -22.357395 -0.94996428
-15.671503 -22.357475 -0.95205826
-15.793537 -22.381611 -0.95519918
-15.888814 -22.375391 -0.95694423
-15.866015 -22.195299 -0.95136029
-15.859758 -22.039904 -0.9468233
-15.870276 -21.909044 -0.94333333
-15.956697 -21.883301 -0.94438034
-16.072689 -21.897507 -0.94717234
-16.177044 -21.895124 -0.94926625
-16.281544 -21.892305 -0.95136029
-16.404156 -21.91304 -0.95450115
-16.51503 -21.917261 -0.95694423
-16.626089 -21.921 -0.95938718
-17.333435 -22.411476 -0.98800474
-17.446741 -22.412106 -0.9904477
-17.535557 -22.380783 -0.99149472
-17.562456 -22.270658 -0.98905176
-17.595043 -22.168415 -0.98695773
-17.602213 -22.034956 -0.98346782
