# .PCD v0.7 - Point Cloud Data file format
VERSION 0.7
FIELDS x y z
SIZE 4 4 4
TYPE F F F
COUNT 1 1 1
WIDTH 61
HEIGHT 1
VIEWPOINT 0 0 0 1 0 0 0
POINTS 61
DATA ascii
-0.71557587 7.5290174 0.92508274
-0.69100511 7.5213451 0.92386228
-0.66736972 7.523479 0.92386228
-0.64287877 7.5156503 0.92264187
-0.61877227 7.5276318 0.92386228
-0.59512144 7.5295386 0.92386228
-0.57146478 7.5313711 0.92386228
-0.54852939 7.5430279 0.92508274
-0.52552235 7.5546145 0.92630315
-0.50311661 7.5760341 0.92874396
-0.47868076 7.5676727 0.92752355
-0.45671222 7.5988598 0.93118483
-0.43340579 7.6101661 0.93240529
-0.4100368 7.6214004 0.9336257
-0.38711059 7.6424751 0.93606651
-0.36357808 7.6535678 0.93728697
-0.34086919 7.6844182 0.94094825
-0.31755847 7.7052841 0.94338912
-0.29488894 7.7459145 0.9482708
-0.27161393 7.7765594 0.95193207
-0.24742618 7.8270178 0.95803422
-0.22457221 7.8872828 0.96535677
-0.20133781 7.9474807 0.97267932
-0.17773159 8.0076103 0.98000187
-0.15335807 8.047822 0.98488355
-0.12780914 8.117753 0.9934265
-0.10415 8.2570562 1.0105125
-0.078708254 8.3069668 1.0166147
-0.053789787 8.4758978 1.0373619
-0.02731527 8.5157261 1.0422436
-0.00059102749 8.5554705 1.0471253
0.026314432 8.5653563 1.0483458
0.053332888 8.5850811 1.0507865
0.080215693 8.5749454 1.0495661
0.10715316 8.5746517 1.0495661
0.13423853 8.584197 1.0507865
0.16102917 8.5738087 1.0495661
0.18796265 8.5732603 1.0495661
0.21614774 8.5626688 1.0483458
0.24277054 8.5520258 1.0471253
0.26994178 8.561142 1.0483458
0.29683948 8.5602512 1.0483458
0.32372969 8.5592766 1.0483458
0.34981659 8.5383825 1.0459049
0.37812933 8.5371752 1.0459049
0.40541077 8.5458603 1.0471253
0.43176001 8.5346308 1.0459049
0.45804721 8.5233212 1.0446844
0.48537815 8.5317497 1.0459049
0.51276654 8.5400906 1.0471253
0.53959239 8.5384378 1.0471253
0.56706828 8.5466042 1.0483458
0.59391433 8.5447807 1.0483458
0.62146747 8.5527716 1.0495661
0.64907682 8.5606747 1.0507865
0.67752177 8.5783834 1.0532274
0.70607972 8.5959969 1.0556682
0.73391765 8.6036263 1.0568887
0.76354748 8.6309395 1.06055
0.79396749 8.6481295 1.0629909
0.82393283 8.6752357 1.0666521
