# .PCD v0.7 - Point Cloud Data file format
VERSION 0.7
FIELDS x y z
SIZE 4 4 4
TYPE F F F
COUNT 1 1 1
WIDTH 1126
HEIGHT 1
VIEWPOINT 0 0 0 1 0 0 0
POINTS 1126
DATA ascii
-9.4832153 23.357452 0.144968
-9.3911123 23.340748 0.14468001
-9.2988501 23.334606 0.14444964
-9.2291679 23.373005 0.14450723
-9.1447601 23.373947 0.14433445
-8.8991566 23.393677 0.14393127
-8.8291512 23.430876 0.14398888
-8.7345009 23.40229 0.14364329
-8.6540022 23.410858 0.1435281
-8.5666494 23.400372 0.14329772
-8.4855938 23.41925 0.14324012
-8.4119816 23.445791 0.14324012
-8.3416357 23.481525 0.14329772
-8.2645025 23.498182 0.14324012
-8.184063 23.505144 0.14312494
-8.1036539 23.511833 0.14300975
-8.0265217 23.527712 0.14295214
-7.9429612 23.524391 0.14277937
-7.8721924 23.558712 0.14283696
-6.7475901 23.614042 0.14122428
-6.6502209 23.568924 0.14082111
-6.5707664 23.570438 0.14070593
-6.4954858 23.570551 0.14059073
-6.4225402 23.611259 0.14070593
-6.3405447 23.602346 0.14053313
-6.2586622 23.593155 0.14036034
-6.1845145 23.612701 0.14036034
-6.1102996 23.632013 0.14036034
-6.0310807 23.631716 0.14024517
-5.9543619 23.640852 0.14018756
-5.8752375 23.640032 0.14007238
-5.7937932 23.629236 0.13989958
-5.7148156 23.627886 0.1397844
-5.6150136 23.538733 0.13915084
-5.5387478 23.546522 0.13909325
-5.4851027 23.651472 0.13961162
-5.4130063 23.678335 0.13966921
-5.3341818 23.675716 0.13955401
-5.25564 23.693275 0.13955401
-5.1811829 23.709667 0.13955401
-5.1024613 23.706276 0.13943882
-5.0279636 23.722189 0.13943882
-4.9513593 23.728081 0.13938121
-4.872766 23.72393 0.13926604
-4.7962308 23.729319 0.13920844
-4.7197094 23.734461 0.13915084
-4.6431909 23.739359 0.13909325
-4.5648098 23.73419 0.13897805
-4.4860783 23.749197 0.13897805
-4.407794 23.743509 0.13886286
-4.3277936 23.727728 0.13869008
-4.2585292 23.770735 0.13886286
-4.1803517 23.764301 0.13874768
-4.1107874 23.806877 0.13892046
-4.0426702 23.85911 0.13915084
-3.9627724 23.842098 0.13897805
-3.5747051 23.842695 0.13863249
-3.5084972 23.91317 0.13897805
-3.4276664 23.884481 0.13874768
-3.3540092 23.905035 0.13880527
-3.2830613 23.914883 0.13880527
-3.2024207 23.915724 0.13874768
-3.1259637 23.915752 0.13869008
-3.0520849 23.935375 0.13874768
-2.975642 23.934921 0.13869008
-2.9016416 23.954079 0.13874768
-2.8240163 23.943214 0.13863249
-2.744216 23.91223 0.1384021
-2.6646385 23.880981 0.13817172
-2.4362864 23.915409 0.13822933
-2.3621297 23.932896 0.13828692
-2.2859805 23.930244 0.13822933
-9.4392853 23.332916 0.004386012
-9.3547745 23.33461 0.0043807765
-9.2740316 23.345299 0.0043772855
-9.1969843 23.365013 0.0043755402
-6.7019391 23.565447 0.0042690751
-6.6292825 23.575602 0.0042673298
-6.5457144 23.578186 0.0042638392
-6.4663148 23.579348 0.0042603486
-6.3843637 23.570587 0.0042551123
-6.3076949 23.580868 0.004253367
-6.228477 23.581232 0.0042498768
-6.1502438 23.601757 0.0042498768
-6.0735712 23.611279 0.0042481315
-5.989521 23.591473 0.0042411499
-5.9105172 23.590771 0.0042376593
-5.8387794 23.618931 0.0042394046
-5.7598 23.617729 0.0042359135
-5.6458054 23.470427 0.0042062434
-5.5743546 23.497774 0.0042079883
-5.5278511 23.632015 0.0042289328
-5.4558201 23.65901 0.0042306781
-5.3770347 23.65653 0.004227187
-5.3026924 23.673306 0.004227187
-5.2261415 23.680082 0.0042254417
-5.1495876 23.686613 0.0042236964
-5.0647326 23.674225 0.0042184605
-4.9944749 23.689148 0.0042184605
-4.9200315 23.70472 0.0042184605
-4.8333936 23.681713 0.0042114793
-4.7629018 23.716391 0.0042149699
-4.688374 23.731237 0.0042149699
-4.6061678 23.706583 0.0042079883
-4.5354261 23.74058 0.0042114793
-4.4589772 23.744883 0.004209734
-4.3747697 23.730038 0.0042044981
-4.2984056 23.733826 0.0042027528
-4.2262206 23.736628 0.0042010075
-4.1526461 23.780066 0.0042062434
-4.0813012 23.812704 0.004209734
-4.0064616 23.825411 0.004209734
-3.9315953 23.837879 0.004209734
-3.8534963 23.83037 0.0042062434
-3.6272249 23.855743 0.0042044981
-3.5537381 23.876913 0.0042062434
-3.4758284 23.868168 0.0042027528
-3.4008179 23.878971 0.0042027528
-3.3257861 23.889536 0.0042027528
-3.2507217 23.899866 0.0042027528
-3.1729903 23.890133 0.0041992618
-3.0979249 23.899984 0.0041992618
-3.0199051 23.920048 0.0042010075
-2.9447334 23.929417 0.0042010075
-2.8683546 23.928621 0.0041992618
-2.7896903 23.907715 0.0041940259
-2.7089286 23.866682 0.0041852994
-2.6295369 23.835316 0.0041783177
-2.4797304 23.851366 0.0041783177
-2.4067974 23.878939 0.0041818088
-2.3327303 23.896336 0.0041835541
-2.2544255 23.913895 0.0041852994
-6.9637499 23.489519 0.9781571
-6.8843088 23.4921 0.97735792
-6.8076911 23.504013 0.97695833
-6.7338204 23.525284 0.97695833
-6.6571603 23.536709 0.9765588
-6.5778141 23.538258 0.97575969
-6.501174 23.549175 0.9753601
-6.4245362 23.559841 0.97496051
-6.3504863 23.57991 0.97496051
-6.2661157 23.561113 0.97336221
-6.1854153 23.5721 0.97296268
-6.1063204 23.572069 0.9721635
-6.0297666 23.581455 0.97176391
-5.9532075 23.590593 0.97136432
-5.876657 23.599482 0.97096479
-5.7977276 23.598419 0.97016561
-5.7188511 23.597097 0.96936649
-5.6145239 23.488602 0.96417201
-5.5361271 23.48667 0.96337283
-5.4894328 23.620745 0.96816778
-5.4152021 23.637873 0.96816778
-5.3365083 23.635277 0.9673686
-5.2622328 23.651924 0.9673686
-5.1814942 23.639057 0.96616989
-5.1072078 23.655218 0.96616989
-5.0307822 23.661373 0.96577036
-4.954381 23.66728 0.96537077
-4.8718438 23.664005 0.9645716
-4.7974801 23.679193 0.9645716
-4.7211185 23.684347 0.96417201
-4.6466789 23.699064 0.96417201
-4.5703168 23.703732 0.96377242
-4.4939713 23.708155 0.96337283
-4.4194708 23.722155 0.96337283
-4.341321 23.716267 0.96257377
-4.2632637 23.710119 0.96177459
-4.1904931 23.733234 0.96217418
-4.1431823 23.903812 0.96856731
-4.0939779 24.094742 0.97575969
-4.0297489 24.176479 0.97855669
-9.389452 23.223335 -0.11785161
-9.305295 23.224869 -0.11771025
-9.2249041 23.235399 -0.11761601
-9.1372261 23.227041 -0.11742752
-9.064208 23.255634 -0.11742752
-6.6136804 23.538162 -0.11502431
-6.5316749 23.529917 -0.11488294
-6.4630122 23.569609 -0.11497719
-6.3717575 23.542648 -0.11474158
-6.2977676 23.562548 -0.11474158
-6.2186074 23.56288 -0.11464734
-6.1420341 23.572622 -0.11460021
-6.0654545 23.582117 -0.11455309
-5.9905362 23.580624 -0.11445884
-5.9147353 23.610062 -0.11450597
-5.8333392 23.599401 -0.11436459
-5.7520695 23.588465 -0.11422323
-5.6241565 23.382797 -0.11313944
-5.5442786 23.39159 -0.11309232
-5.5162668 23.603643 -0.11403474
-5.446579 23.640347 -0.11412899
-5.3722868 23.657339 -0.11412899
-5.2935629 23.654585 -0.11403474
-5.2170744 23.661331 -0.11398762
-5.1405959 23.667833 -0.11394051
-5.0662189 23.683867 -0.11394051
-4.9876714 23.680094 -0.11384626
-4.9152737 23.705439 -0.11389339
-4.836782 23.701166 -0.11379914
-4.7623019 23.716244 -0.11379914
-4.6816936 23.722095 -0.11375201
-4.6071482 23.736687 -0.11375201
-4.5306711 23.741222 -0.1137049
-4.4523807 23.73568 -0.11361065
-4.3746881 23.70945 -0.11342216
-4.2960401 23.723825 -0.11342216
-4.2249789 23.756899 -0.11351641
-4.1520462 23.779905 -0.11356354
-4.07901 23.802687 -0.11361065
-4.0042148 23.815382 -0.11361065
-3.9203434 23.798931 -0.11346929
-3.8455608 23.811129 -0.11346929
-3.617974 23.82654 -0.11337505
-3.5431061 23.83779 -0.11337505
-3.4681904 23.848804 -0.11337505
-3.3904386 23.839781 -0.1132808
-3.3141541 23.840408 -0.11323368
-3.239244 23.850702 -0.11323368
-3.1656032 23.870676 -0.1132808
-3.0905988 23.880503 -0.1132808
-3.0118093 23.860331 -0.11313944
-2.9392788 23.889523 -0.11323368
-2.8600411 23.899139 -0.11323368
-2.786797 23.887657 -0.11313944
-2.7061069 23.846611 -0.11290383
-2.4770799 23.871489 -0.11290383
-2.4040639 23.899054 -0.11299807
-2.3280053 23.896534 -0.11295094
-2.2529237 23.90373 -0.11295094
-2.1745472 23.921028 -0.11299807
-9.3706722 23.13237 -0.25660613
-9.2942333 23.152412 -0.25650316
-9.2066727 23.144329 -0.25609127
-9.1225519 23.156124 -0.25588533
-9.0424881 23.166037 -0.2556794
-6.5789819 23.369936 -0.24960405
-6.5028501 23.380856 -0.24950106
-6.4267211 23.391525 -0.2493981
-6.3505826 23.401951 -0.24929512
-6.2703586 23.413221 -0.24919215
-6.1865587 23.394135 -0.24878027
-6.1155543 23.42313 -0.24888325
-6.0369539 23.422859 -0.2486773
-5.963336 23.44171 -0.2486773
-5.8823671 23.431231 -0.24836837
-5.8063216 23.439888 -0.2482654
-5.7302861 23.448301 -0.24816245
-5.616797 23.30092 -0.24641192
-5.5435581 23.318453 -0.24641192
-5.4999166 23.46232 -0.24775055
-5.4261832 23.479483 -0.24775055
-5.3523965 23.496412 -0.24775055
-5.2698045 23.474081 -0.24733865
-5.2024956 23.519815 -0.24764757
-5.1200767 23.496962 -0.2472357
-5.0441403 23.503153 -0.24713272
-4.9702992 23.539318 -0.24733865
-4.8922615 23.535236 -0.24713272
-4.8182898 23.550491 -0.24713272
-4.742312 23.555708 -0.24702975
-4.6702294 23.580299 -0.24713272
-4.5923104 23.575222 -0.24692677
-4.5182147 23.589535 -0.24692677
-4.4385428 23.574131 -0.24661785
-4.3626466 23.578125 -0.24651487
-4.2903414 23.601551 -0.24661785
-4.2161646 23.614916 -0.24661785
-4.1361203 23.618916 -0.24651487
-4.0601978 23.621941 -0.24641192
-3.9859705 23.634579 -0.24641192
-3.9117038 23.646984 -0.24641192
-3.8405957 23.678896 -0.24661785
-3.5368438 23.685728 -0.24620597
-3.4609625 23.686829 -0.246103
-3.3823941 23.698175 -0.246103
-3.306551 23.69878 -0.24600002
-3.2347829 23.728867 -0.24620597
-3.1589062 23.729 -0.246103
-3.0830607 23.728889 -0.24600002
-3.0059795 23.718618 -0.24579407
-2.9339013 23.747793 -0.24600002
-2.8568988 23.737036 -0.24579407
-2.7846386 23.765759 -0.24600002
-2.708823 23.764454 -0.24589705
-2.6341543 23.772846 -0.24589705
-2.404835 23.787086 -0.24579407
-2.3310566 23.804478 -0.24589705
-2.2581465 23.831594 -0.246103
-2.1892571 23.858105 -0.24630895
-9.0472536 23.304289 0.7320537
-8.6731462 23.424774 0.73146731
-8.4875765 23.386343 0.72853565
-6.9793358 23.536026 0.71886086
-6.8969226 23.529062 0.7179814
-6.817399 23.531414 0.71739501
-6.7434425 23.552713 0.71739501
-6.6625791 23.565329 0.71710187
-6.5858188 23.576517 0.71680868
-6.5037389 23.568186 0.71592915
-6.427031 23.578859 0.71563601
-6.3503265 23.589281 0.71534282
-6.2736139 23.599457 0.71504962
-6.1969061 23.609381 0.71475649
-6.1176825 23.609381 0.7141701
-6.0360475 23.599434 0.71329063
-5.9594259 23.608591 0.71299744
-5.885231 23.627195 0.71299744
-5.8038149 23.616447 0.71211791
-5.7366676 23.663706 0.71299744
-5.6204085 23.506632 0.70772028
-5.5419431 23.504715 0.70713395
-5.497529 23.648573 0.71094525
-5.4232106 23.665726 0.71094525
-5.3444176 23.663149 0.71035886
-5.2700543 23.679821 0.71035886
-5.1893582 23.687405 0.71006566
-5.1085873 23.674278 0.70918614
-5.0362706 23.699986 0.70947933
-4.9576821 23.696127 0.708893
-4.8811989 23.701796 0.70859987
-4.8027411 23.69742 0.70801347
-4.7282729 23.712391 0.70801347
-4.6498933 23.707512 0.70742714
-4.5753942 23.722002 0.70742714
-4.4948401 23.727224 0.70713395
-4.4202795 23.741228 0.70713395
-4.3438749 23.745165 0.70684075
-4.2657189 23.739019 0.70625448
-4.1893711 23.742462 0.70596129
-4.1472206 23.942627 0.71153152
-4.0887585 24.054079 0.71446329
-4.0115266 24.056944 0.7141701
-3.9359202 24.069429 0.7141701
-3.8587036 24.071808 0.71387696
-3.4744837 24.120163 0.71358377
-3.4000902 24.140856 0.71387696
-3.3228707 24.141516 0.71358377
-3.2496827 24.171646 0.7141701
-3.1763256 24.201559 0.71475649
-3.097738 24.191589 0.7141701
-3.0192447 24.181366 0.71358377
-2.943265 24.190731 0.71358377
-2.866065 24.189932 0.71329063
-2.7682633 24.010153 0.70772028
-2.6760836 23.869734 0.70332271
-9.4163647 23.334875 0.58328724
-9.3281622 23.327211 0.58235884
-9.2474613 23.337814 0.58189464
-8.8337669 23.358627 0.57887721
-8.4978561 23.365934 0.57632405
-8.4277925 23.401922 0.57655615
-8.3508768 23.418867 0.57632405
-8.267272 23.416706 0.57562768
-8.1870699 23.423687 0.57516348
-8.1036301 23.420952 0.57446718
-8.030015 23.446293 0.57446718
-7.9458013 23.453856 0.57400298
-7.8657188 23.459747 0.57353872
-7.7888331 23.474852 0.57330662
-7.7088051 23.480211 0.57284242
-7.6288261 23.485296 0.57237822
-7.5458317 23.480593 0.57168186
-7.4659657 23.485128 0.57121766
-7.3891521 23.498932 0.57098556
-7.3063793 23.493391 0.57028925
-7.2266607 23.497116 0.56982499
-7.1498938 23.510139 0.56959289
-7.073123 23.522911 0.56936079
-6.9865351 23.517488 0.56866449
-6.9013443 23.500954 0.56773603
-6.8274832 23.522518 0.56773603
-6.7535481 23.543852 0.56773603
-6.6768255 23.555334 0.56750393
-6.600091 23.566568 0.56727183
-6.5180259 23.558281 0.56657553
-6.4413433 23.568998 0.56634337
-6.3620586 23.569815 0.56587917
-6.2879772 23.589685 0.56587917
-6.2071781 23.600739 0.56564707
-6.130487 23.610445 0.56541497
-6.0463543 23.590853 0.5644865
-5.9648509 23.580656 0.5637902
-5.8907437 23.599277 0.5637902
-5.8141809 23.607962 0.5635581
-5.7329063 23.596968 0.5628618
-5.6331139 23.507919 0.56030858
-5.5569243 23.515774 0.56007648
-5.5079856 23.640215 0.5626297
-5.4314551 23.647657 0.56239754
-5.3571401 23.664602 0.56239754
-5.2784047 23.661804 0.56193334
-5.2040458 23.678268 0.56193334
-5.1233821 23.685625 0.56170124
-5.0447822 23.682049 0.56123704
-4.9744887 23.696913 0.56123704
-4.8979969 23.702633 0.56100494
-4.8153853 23.699152 0.56054068
-4.7389512 23.704357 0.56030858
-4.6644616 23.719128 0.56030858
-4.5918245 23.743481 0.56054068
-4.5115957 23.728327 0.55984437
-4.4328837 23.743156 0.55984437
-4.35286 23.727467 0.55914807
-4.2782993 23.741024 0.55914807
-4.2036967 23.754347 0.55914807
-4.1307521 23.777288 0.55938017
-4.0543556 23.780293 0.55914807
-3.9779806 23.783051 0.55891597
-3.9048665 23.805296 0.55914807
-3.8284757 23.807575 0.55891597
-3.6069143 23.86237 0.55938017
-3.529006 23.853804 0.55891597
-3.4468758 23.815302 0.55775535
-3.3720441 23.826014 0.55775535
-3.2985497 23.846392 0.55798751
-3.2209418 23.836823 0.55752325
-3.1434143 23.827003 0.55705911
-3.0685472 23.83676 0.55705911
-2.9894838 23.846806 0.55705911
-2.9169815 23.875925 0.55752325
-2.8419616 23.88497 0.55752325
-2.7622983 23.854059 0.55659485
-2.6873481 23.862619 0.55659485
-2.4623413 23.886887 0.55659485
-9.4289446 23.332895 0.44296429
-9.3481655 23.343836 0.44261175
-9.2637186 23.345209 0.44208297
-8.9339285 23.366381 0.44032025
-8.8533983 23.375629 0.43996772
-8.7693815 23.375246 0.43943894
-8.688942 23.383934 0.43908638
-8.5940943 23.365698 0.438205
-8.5138016 23.373795 0.4378525
-8.4437237 23.40983 0.43802878
-8.3768587 23.455074 0.43838128
-8.2964697 23.462421 0.43802878
-8.2128067 23.460058 0.43749997
-8.1390676 23.485744 0.43749997
-8.0555105 23.482824 0.43697113
-7.9752722 23.489079 0.4366186
-7.8950748 23.495062 0.43626609
-7.8117576 23.491287 0.43573725
-7.7379222 23.515711 0.43573725
-7.6547198 23.511383 0.43520844
-7.5716281 23.506763 0.43467966
-7.4977388 23.530436 0.43467966
-7.4207768 23.544336 0.43450338
-7.3378453 23.538897 0.43397456
-7.2597466 23.563101 0.43397456
-7.1740355 23.547533 0.4332695
-7.0913701 23.541233 0.43274069
-7.0059695 23.525064 0.43203562
-6.9207335 23.508593 0.43133053
-6.8412619 23.511017 0.430978
-6.7701259 23.542004 0.43115425
-6.6934037 23.553537 0.430978
-6.6139679 23.555199 0.43062547
-6.5345936 23.556589 0.43027294
-6.4552755 23.557714 0.42992038
-6.3771191 23.578991 0.42992038
-6.2978501 23.57959 0.42956784
-6.218647 23.579924 0.42921531
-6.1470528 23.609018 0.42939156
-6.0719976 23.607788 0.42903906
-5.9928856 23.607363 0.4286865
-5.9169946 23.636806 0.42886278
-5.8355141 23.626158 0.42833397
-5.7541656 23.615229 0.42780513
-5.6495857 23.506807 0.42551365
-5.5669951 23.505953 0.42516109
-5.5181274 23.63043 0.42710009
-5.4460959 23.657394 0.42727634
-5.3695388 23.664637 0.42710009
-5.2951708 23.681387 0.42710009
-5.2142987 23.668612 0.42657125
-5.1399064 23.684877 0.42657125
-5.0654759 23.700907 0.42657125
-4.9889374 23.706919 0.426395
-4.9103837 23.702894 0.42604247
-4.8338881 23.708408 0.42586619
-4.7574191 23.713673 0.42568994
-4.6768212 23.719509 0.42551365
-4.5984788 23.714453 0.42516109
-4.5239582 23.728781 0.42516109
-4.4498429 23.722448 0.42480859
-4.375298 23.736311 0.42480859
-4.2930021 23.73101 0.42445606
-4.218431 23.744379 0.42445606
-4.1472526 23.777214 0.42480859
-4.0792699 23.829548 0.42551365
-3.9961133 23.792944 0.42463231
-3.9188128 23.815931 0.42480859
-3.6132364 23.823751 0.4241035
-3.5398448 23.844875 0.42427978
-3.466356 23.865772 0.42445606
-3.3885422 23.856747 0.4241035
-3.3122063 23.85737 0.42392722
-3.2372429 23.867659 0.42392722
-3.1635597 23.887623 0.4241035
-3.0859275 23.877611 0.42375097
-3.0096521 23.877268 0.42357469
-2.9334092 23.87668 0.42339841
-2.8607619 23.905634 0.42375097
-2.7821808 23.88471 0.42322218
-2.7048717 23.873463 0.42286962
-2.3985023 23.886089 0.42251709
-9.4374857 23.320595 0.29812315
-9.3455725 23.303722 0.29752976
-9.2649374 23.314379 0.29729241
-9.1839123 23.335669 0.29717371
-9.0996609 23.336458 0.29681769
-8.9421387 23.365152 0.29646164
-8.8545227 23.355724 0.29598692
-8.7740822 23.364704 0.29574957
-8.6971493 23.38278 0.2956309
-8.6063786 23.363068 0.29503748
-8.5192366 23.352415 0.29456279
-8.4424381 23.369658 0.29444408
-8.3757067 23.414898 0.29468146
-8.3087816 23.459948 0.29491884
-8.2210236 23.459059 0.29456279
-8.1407309 23.465876 0.29432541
-8.0572367 23.462959 0.29396936
-7.980267 23.478689 0.29385069
-7.9032841 23.494165 0.29373202
-7.8136511 23.471437 0.29313862
-7.7367516 23.48637 0.29301992
-7.6536365 23.482038 0.2926639
-7.5798306 23.505966 0.2926639
-7.4998703 23.510611 0.29242653
-7.4229689 23.524517 0.29230785
-7.3460536 23.538174 0.29218918
-7.263227 23.532473 0.29183316
-7.186348 23.545609 0.29171446
-7.0938015 23.521441 0.29112107
-7.0084486 23.50528 0.29064634
-6.9289231 23.507996 0.29040897
-6.8438549 23.491245 0.28993428
-6.7755527 23.531847 0.29017162
-6.6933861 23.524164 0.2898156
-6.6140447 23.525822 0.28957823
-6.537426 23.53685 0.28945956
-6.4581666 23.537983 0.28922218
-6.3841848 23.558157 0.28922218
-6.3008709 23.559877 0.28898484
-6.2217193 23.560219 0.28874749
-6.147675 23.579649 0.28874749
-6.068584 23.579477 0.28851011
-5.9920201 23.588734 0.28839144
-5.9130225 23.588041 0.28815407
-5.8388925 23.606501 0.28815407
-5.7576008 23.595585 0.28779805
-5.660058 23.516336 0.28661123
-5.5746193 23.485353 0.28601786
-5.5167489 23.570908 0.2868486
-5.4494123 23.617352 0.28720462
-5.3729644 23.624605 0.28708595
-5.2965379 23.631613 0.28696728
-5.22012 23.638371 0.2868486
-5.1479588 23.664423 0.28696728
-5.0714874 23.670704 0.2868486
-4.9971018 23.686518 0.2868486
-4.9083786 23.654003 0.28625518
-4.8340459 23.669306 0.28625518
-4.759666 23.684374 0.28625518
-4.681365 23.679592 0.28601786
-4.6050348 23.684366 0.28589916
-4.5306087 23.698717 0.28589916
-4.4561377 23.712833 0.28589916
-4.3779955 23.707047 0.28566182
-4.2999206 23.701006 0.28542444
-4.2271957 23.724243 0.28554311
-4.150218 23.747982 0.28566182
-4.0731297 23.771469 0.28578049
-4.0042448 23.79331 0.28589916
-3.931093 23.815639 0.28601786
-3.6255178 23.823612 0.28554311
-3.5521176 23.844776 0.28566182
-3.4757526 23.845922 0.28554311
-3.3952491 23.847418 0.28542444
-3.3203168 23.857965 0.28542444
-3.2440066 23.85837 0.28530577
-3.1664 23.848619 0.28506839
-3.0953131 23.888199 0.28542444
-3.0190024 23.887884 0.28530577
-2.9451652 23.907175 0.28542444
-2.8688452 23.906384 0.28530577
-2.7902563 23.885483 0.28494972
-2.7095735 23.84445 0.28435633
-2.6324625 23.832966 0.28411895
-2.4035571 23.857138 0.28411895
-2.3295679 23.874523 0.28423765
-8.3911505 23.209234 -0.99394947
-7.2988315 23.366282 -0.98588818
-7.2176595 23.349653 -0.984276
-7.1471887 23.381769 -0.98467904
-7.0580525 23.367081 -0.9830668
-6.9846044 23.389141 -0.9830668
-6.9026003 23.382219 -0.98185754
-6.823504 23.384609 -0.9810515
-6.6599956 23.369368 -0.97863305
-6.593298 23.429796 -0.98024535
-6.5089469 23.411886 -0.97863305
-6.4394546 23.431097 -0.97863305
-6.356482 23.433037 -0.97782701
-6.2776551 23.43359 -0.97702086
-6.2040086 23.453196 -0.97702086
-6.1252398 23.453236 -0.97621471
-6.0490355 23.462688 -0.97581166
-5.9752922 23.481577 -0.97581166
-5.8966246 23.48085 -0.97500551
-5.8204203 23.489563 -0.97460252
-5.744225 23.498026 -0.97419947
-5.6633449 23.486816 -0.97299021
-5.5594535 23.37813 -0.96775049
-5.4722719 23.337114 -0.96533203
-5.4259658 23.471006 -0.97016883
-5.3610945 23.526903 -0.97178102
-5.2827764 23.524132 -0.97097498
-5.2004189 23.522009 -0.97016883
-5.1264873 23.538233 -0.97016883
-5.0483217 23.534683 -0.96936268
-4.9743633 23.550426 -0.96936268
-4.8962831 23.546371 -0.96855652
-4.8202705 23.551851 -0.96815348
-4.7442851 23.557083 -0.96775049
-4.670258 23.571871 -0.96775049
-4.5923581 23.566813 -0.96694434
-4.5164061 23.571312 -0.96654123
-4.4345274 23.566519 -0.96573514
-4.3640981 23.599985 -0.96654123
-4.2845731 23.584087 -0.96533203
-4.2122211 23.607265 -0.96573514
-4.1380391 23.620382 -0.96573514
-4.0587173 23.603727 -0.964526
-3.9862111 23.626213 -0.96492898
-3.9103372 23.628763 -0.964526
-3.8328838 23.621204 -0.96371984
-3.7555039 23.613396 -0.96291369
-3.6787164 23.635592 -0.9633168
-3.3828468 23.689842 -0.96371984
-3.3028622 23.66077 -0.96210754
-3.2326517 23.670465 -0.96210754
-3.1514962 23.661249 -0.96130151
-3.0771496 23.671032 -0.96130151
-3.0065379 23.71032 -0.96251065
-2.9283538 23.689899 -0.96130151
-2.8563123 23.718821 -0.96210754
-2.7794552 23.70783 -0.96130151
-2.7038169 23.70652 -0.9608984
-2.6293306 23.714897 -0.9608984
-2.553746 23.713106 -0.96049535
-2.2523615 23.753664 -0.9608984
-2.1759007 23.740723 -0.96009231
-2.1021924 23.757395 -0.96049535
-2.0216973 23.744322 -0.9596892
-6.8818197 21.647932 -1.0534875
-6.8467488 21.774265 -1.0585926
-6.7426991 21.681206 -1.0530235
-6.6539946 21.635448 -1.0497749
-6.5553284 21.801188 -1.0558081
-6.4583311 21.725925 -1.0511671
-6.3806181 21.728054 -1.050239
-6.4726429 22.564663 -1.0887586
-6.3772011 22.498392 -1.0845817
-6.2010765 22.412863 -1.0785486
-6.1806808 22.615311 -1.0873663
-5.6798773 21.580971 -1.0349239
-5.6384149 21.71571 -1.040493
-5.585053 21.791372 -1.0432776
-5.4128957 23.231989 -1.1063941
-5.3043323 23.431162 -1.1142836
-5.2198067 23.398964 -1.1119632
-5.0157809 23.545691 -1.1166041
-4.8986731 23.335623 -1.10593
-4.6000051 23.00935 -1.0882944
-4.5720506 23.249119 -1.0989686
-4.4819145 23.1751 -1.0947918
-4.4314761 23.306828 -1.1003609
-4.3986249 23.536654 -1.1105709
-4.3259587 23.580585 -1.1119632
-4.1526074 23.043539 -1.085974
-4.0789824 23.026251 -1.0845817
-3.9940486 22.990442 -1.0822613
-3.8378232 22.510527 -1.0590568
-3.4183788 23.618132 -1.1068581
-3.1916285 23.6196 -1.1054659
-3.1030197 23.520575 -1.1003609
-2.8552845 23.370798 -1.0920072
-2.786576 23.419331 -1.0938636
-2.7198782 23.487507 -1.0966481
-2.6505544 23.535643 -1.0985045
-2.5831301 23.603432 -1.101289
-2.2163041 23.730991 -1.1054659
-2.1435399 23.757736 -1.1063941
-2.066294 23.734497 -1.1050018
-6.9112353 21.663033 -1.1895963
-6.8972249 21.856064 -1.1990167
-6.8047333 21.801359 -1.1948298
-6.7206268 21.785633 -1.1927364
-6.6375899 21.758879 -1.1901196
-6.5720797 21.789186 -1.190643
-6.4522438 21.637463 -1.1812226
-6.3785872 21.638468 -1.1801758
-6.355772 22.071577 -1.2016335
-6.3984356 22.485247 -1.2230912
-6.3196549 22.476398 -1.2215213
-6.2543588 22.515383 -1.2225679
-6.2549205 22.794947 -1.2366986
-6.0224633 22.516499 -1.2194277
-5.7549233 22.070726 -1.1932597
-5.6233411 21.846916 -1.1801758
-5.5142188 21.689289 -1.1707553
-5.4568357 21.765575 -1.1738955
-5.3572679 21.656584 -1.1670917
-5.2915635 21.683012 -1.1676152
-5.2514572 21.816038 -1.1738955
-5.167562 21.784748 -1.1712787
-5.1195631 21.888391 -1.1759889
-4.9752903 21.890911 -1.1744188
-4.8584962 21.692043 -1.1629049
-4.8247471 21.863228 -1.1712787
-4.6924233 21.585522 -1.1555779
-4.6559272 21.746635 -1.1634283
-4.5855289 21.751383 -1.1629049
-4.5212321 21.785238 -1.1639516
-4.7804084 23.403978 -1.2497826
-4.5986633 22.880398 -1.2209978
-4.5343823 22.954302 -1.224138
-4.2242675 21.743042 -1.158718
-4.2027655 22.001432 -1.171802
-4.1925764 22.328604 -1.1885495
-4.2604647 23.06765 -1.2272781
-4.0788999 22.5019 -1.1963999
-4.0134397 22.544098 -1.19797
-3.9047883 22.340176 -1.1864561
-3.7637031 21.938942 -1.1644751
-3.6798413 21.862028 -1.1597648
-3.6056988 21.864256 -1.1592414
-6.9077764 21.562366 -1.3071934
-6.8249369 21.536373 -1.3043065
-6.7870789 21.652977 -1.3100803
-6.7574234 21.798166 -1.3175863
-6.7181449 21.914743 -1.3233602
-6.6049442 21.803127 -1.3152767
-6.4734511 21.613358 -1.3025744
-6.4338369 21.729321 -1.3083482
-6.3403254 21.663187 -1.3031517
-6.2639184 21.654226 -1.3014196
-6.3576236 22.240166 -1.3354851
-6.1928153 21.923748 -1.3152767
-6.0649223 21.731531 -1.3025744
-5.9966183 21.750479 -1.3025744
-6.1222053 22.482063 -1.3453007
-5.9777164 22.241913 -1.3297113
-5.9257259 22.328133 -1.3337531
-5.7620006 21.989298 -1.3123899
-5.6454329 21.823639 -1.3014196
-5.5373602 21.686491 -1.2921815
-5.4618945 21.674738 -1.2904494
-5.36971 21.5949 -1.2846756
-5.2923269 21.572878 -1.2823659
-5.2057643 21.511766 -1.2777469
-5.158998 21.615416 -1.2829434
-5.1481881 21.874474 -1.2973779
-5.0546365 21.78356 -1.2910267
-5.0262055 21.974518 -1.3014196
-4.9374108 21.902544 -1.2962232
-4.8620934 21.888708 -1.2944911
-4.769845 21.796593 -1.2881398
-4.7013483 21.81147 -1.2881398
-4.591753 21.65114 -1.2777469
-4.5155616 21.626368 -1.2754375
-4.4676752 21.738239 -1.2812111
-4.4151769 21.830452 -1.2858303
-4.3056993 21.63859 -1.2737052
-4.1734304 21.684822 -1.27486
-4.1034341 21.688017 -1.2742827
-4.0279794 21.661539 -1.271973
-4.0047078 21.919617 -1.2864076
-4.1365867 23.052341 -1.3522292
-3.9650543 22.525141 -1.3204732
-3.8535321 22.301374 -1.3066161
-3.8134415 22.490551 -1.317009
-3.7313197 22.433481 -1.3129673
-2.7657764 23.427565 -1.3620448
-6.9842477 21.654711 -1.4529001
-6.8949347 21.609997 -1.4484315
-6.7841797 21.509027 -1.4401329
-6.7195449 21.539762 -1.4407712
-6.6585526 21.569139 -1.4414096
-6.6257539 21.704477 -1.4490699
-6.5537419 21.72633 -1.4490699
-6.5197043 21.861567 -1.4567302
-6.4227514 21.786222 -1.4503466
-6.3151541 21.672169 -1.4414096
-6.2083421 21.557652 -1.4324726
-6.1313553 21.558926 -1.431196
-6.0446835 21.510834 -1.4267274
-5.9717283 21.510487 -1.4254507
-5.9041247 21.52914 -1.4254507
-5.8625717 21.643902 -1.4318343
-5.8151994 21.739332 -1.4369411
-5.8055429 21.979401 -1.4516233
-5.7591524 22.084435 -1.4573686
-5.6997018 22.141073 -1.459922
-5.4874444 21.597912 -1.4228972
-5.4074154 21.566648 -1.4197055
-5.3372388 21.573843 -1.4190671
-5.276545 21.619587 -1.4209822
-5.2039142 21.616655 -1.4197055
-5.1798267 21.817371 -1.4318343
-5.0793819 21.697506 -1.4228972
-4.9977155 21.655014 -1.4190671
-4.9939165 21.952793 -1.4375794
-4.8877754 21.802839 -1.4267274
-4.7960682 21.731226 -1.4209822
-4.7256541 21.736435 -1.4203439
-4.6678061 21.799961 -1.4235356
-4.5992994 21.814518 -1.4235356
-4.5104299 21.731152 -1.417152
-4.4461398 21.764769 -1.4184288
-4.3718371 21.749279 -1.4165137
-4.2841077 21.66501 -1.4101301
-4.2503519 21.854683 -1.4216205
-4.2641106 22.319544 -1.450985
-4.1109791 21.891483 -1.4222589
-4.016799 21.766901 -1.413322
-4.0428805 22.299826 -1.4471549
-3.9885609 22.400841 -1.4529001
-4.0024953 22.894934 -1.4841795
-3.8730907 22.572989 -1.4624754
-3.8403194 22.81138 -1.4771576
-3.610703 21.868282 -1.4152371
-9.4735451 23.217363 -0.43700823
-9.370553 23.172865 -0.43561205
-9.2936563 23.203812 -0.43561205
-9.2059555 23.195724 -0.43491396
-9.1293745 23.215227 -0.43473944
-9.0491352 23.225161 -0.4343904
-8.9653158 23.225494 -0.4338668
-6.5704412 23.411352 -0.42374441
-6.4968567 23.431879 -0.42374441
-6.4152846 23.423246 -0.42322084
-6.3416638 23.443285 -0.42322084
-6.2654033 23.453432 -0.42304632
-6.1865835 23.453667 -0.42269728
-6.110352 23.46331 -0.42252275
-6.0316234 23.463024 -0.42217368
-5.9554248 23.472168 -0.42199919
-5.8792276 23.481062 -0.42182466
-5.798233 23.470297 -0.42130107
-5.7220912 23.478685 -0.42112654
-5.6389489 23.457661 -0.42042848
-5.5375261 23.358521 -0.41833416
-5.4755092 23.424477 -0.41920677
-5.4153676 23.500023 -0.42025393
-5.3481669 23.546165 -0.4207775
-5.2632403 23.514069 -0.41990489
-5.1852345 23.531393 -0.41990489
-5.1070399 23.528025 -0.41955584
-5.0309973 23.534178 -0.41938129
-4.9570408 23.549868 -0.41938129
-4.8749118 23.526163 -0.41868323
-4.8049817 23.560955 -0.41903228
-4.7269907 23.55633 -0.41868323
-4.652966 23.571064 -0.41868323
-4.5750799 23.565935 -0.41833416
-4.4950309 23.571156 -0.41815963
-4.4191165 23.575333 -0.41798511
-4.3432202 23.579266 -0.41781059
-4.2691131 23.592796 -0.41781059
-4.1949759 23.606091 -0.41781059
-4.1173563 23.599457 -0.41746157
-4.0431995 23.612274 -0.41746157
-3.9689898 23.624861 -0.41746157
-3.8914979 23.617483 -0.4171125
-3.8188822 23.639462 -0.41728702
-3.7389047 23.64212 -0.4171125
-3.4372015 23.657553 -0.41658893
-3.364274 23.678133 -0.41676345
-3.2871182 23.668777 -0.41641438
-3.2127349 23.678989 -0.41641438
-3.1383324 23.688965 -0.41641438
-3.063899 23.698708 -0.41641438
-2.9881823 23.698298 -0.41623989
-2.9137077 23.707569 -0.41623989
-2.8368354 23.696751 -0.41589084
-2.7612195 23.695614 -0.41571632
-2.6890237 23.724041 -0.41606537
-2.6144698 23.732372 -0.41606537
-2.5345726 23.69076 -0.41519272
-2.3815346 23.706635 -0.41519272
-2.3089905 23.733902 -0.4155418
-2.2381768 23.780855 -0.41623989
-2.1598148 23.747942 -0.4155418
-5.7622561 21.422501 -1.5756516
-5.5529728 21.1891 -1.5557786
-5.5488544 21.447859 -1.5735224
-5.5382323 21.687466 -1.5898467
-5.4676304 21.695086 -1.589137
-5.3753686 21.615356 -1.5820395
-5.2931724 21.574013 -1.577781
-5.2206664 21.571148 -1.5763614
-5.1273923 21.480721 -1.5685543
-5.0530276 21.467594 -1.566425
-5.0081201 21.580526 -1.5735224
-4.9625525 21.693386 -1.5806199
-4.9163136 21.806175 -1.5877174
-4.8391304 21.782564 -1.5848786
-4.7749443 21.817146 -1.5862981
-4.6563444 21.618338 -1.5706834
-4.5904784 21.642616 -1.5713931
-4.5568609 21.802597 -1.5820395
-4.5325851 22.031746 -1.5976541
-4.3942118 21.724028 -1.5742322
-4.3278923 21.747505 -1.5749419
-4.2269526 21.594587 -1.5628762
-4.1741824 21.686119 -1.5685543
-4.1357222 21.855936 -1.5799103
-4.0960336 22.046051 -1.5926857
-4.0249648 22.049 -1.591976
-3.9574399 22.07135 -1.5926857
-3.8448126 21.838087 -1.5749419
-3.7778897 21.859888 -1.5756516
-3.6941814 21.78314 -1.5692638
-3.6421099 21.893032 -1.5763614
-9.420126 23.203934 -0.58049613
-9.3285179 23.18704 -0.57933557
-9.2408199 23.179087 -0.57840717
-9.1679516 23.208006 -0.57840717
-9.0840654 23.208763 -0.57771081
-9.0038748 23.218546 -0.57724661
-6.5297751 23.409756 -0.56332028
-6.4508896 23.410879 -0.56285608
-6.3720546 23.411737 -0.56239188
-6.2958798 23.421984 -0.56215978
-6.219698 23.431986 -0.56192762
-6.1394258 23.442812 -0.56169552
-6.0632477 23.452303 -0.56146342
-5.987071 23.46155 -0.56123137
-5.9060049 23.45116 -0.56053501
-5.8298864 23.459898 -0.56030291
-5.7513967 23.458675 -0.55983871
-5.6776738 23.476627 -0.55983871
-5.5714116 23.358208 -0.55658925
-5.4911237 23.346403 -0.55589288
-5.4448643 23.480404 -0.55867815
-5.3733029 23.507139 -0.55891031
-5.2972322 23.514149 -0.55867815
-5.2211571 23.520918 -0.55844605
-5.1451049 23.527437 -0.55821395
-5.0670557 23.544369 -0.55821395
-4.9909935 23.550392 -0.55798185
-4.9129133 23.525953 -0.55705345
-4.8389835 23.541271 -0.55705345
-4.7569275 23.53759 -0.55658925
-4.6829619 23.552418 -0.55658925
-4.6070299 23.557201 -0.55635709
-4.5292258 23.551924 -0.55589288
-4.4570613 23.575861 -0.55612499
-4.375205 23.570852 -0.55566078
-4.2993422 23.574648 -0.55542868
-4.2252622 23.588037 -0.55542868
-4.1494079 23.591349 -0.55519658
-4.0735617 23.594418 -0.55496448
-3.99775 23.597242 -0.55473238
-3.9236007 23.609684 -0.55473238
-3.8494124 23.621893 -0.55473238
-3.7751737 23.633871 -0.55473238
-3.6978166 23.62586 -0.55426818
-3.3963735 23.640776 -0.55357188
-3.3220901 23.651329 -0.55357188
-3.2464139 23.651745 -0.55333978
-3.1720967 23.661825 -0.55333978
-3.0964379 23.661762 -0.55310762
-3.0233569 23.68129 -0.55333978
-2.9448094 23.691185 -0.55333978
-2.8703699 23.700319 -0.55333978
-2.7935588 23.689363 -0.55287552
-2.7191133 23.698023 -0.55287552
-2.6457627 23.716385 -0.55310762
-2.5701678 23.71464 -0.55287552
-2.3445795 23.717911 -0.55241132
-2.2678168 23.745461 -0.55287552
-2.1932101 23.752468 -0.55287552
-2.118582 23.759241 -0.55287552
-9.3748379 23.175362 -0.71463507
-9.2904987 23.187763 -0.71406263
-9.2028532 23.179676 -0.71291786
-9.1226721 23.189867 -0.71234548
-9.0425119 23.199785 -0.7117731
-8.9623861 23.209429 -0.71120071
-6.9684486 23.383713 -0.69746321
-6.8780117 23.347956 -0.695746
-6.8018312 23.359852 -0.69545984
-6.7228861 23.361893 -0.6948874
-6.6521897 23.392513 -0.69517362
-6.5705609 23.384426 -0.69431508
-6.491715 23.385689 -0.69374263
-6.415575 23.396328 -0.69345647
-6.339426 23.406719 -0.69317025
-6.2540355 23.39864 -0.69231164
-6.183043 23.427837 -0.69259787
-6.1018562 23.418127 -0.69173926
-6.0232739 23.41782 -0.69116688
-5.9537663 23.435587 -0.69116688
-5.8776846 23.444479 -0.69088066
-5.7951107 23.444433 -0.69030827
-5.7190652 23.45281 -0.69002205
-5.6430116 23.460947 -0.68973589
-5.536993 23.34239 -0.68572909
-5.4504595 23.32169 -0.68458432
-5.408577 23.475069 -0.68859112
-5.3414431 23.521189 -0.68944973
-5.2609668 23.508591 -0.68859112
-5.1849375 23.51524 -0.6883049
-5.1067982 23.511875 -0.68773246
-5.0329113 23.527802 -0.68773246
-4.9527965 23.514153 -0.68687391
-4.876862 23.51981 -0.68658775
-4.8009534 23.525221 -0.68630153
-4.727026 23.540186 -0.68630153
-4.6511159 23.545113 -0.68601531
-4.5711069 23.550594 -0.68572909
-4.4952154 23.555021 -0.68544292
-4.4175119 23.549379 -0.68487054
-4.3458142 23.552551 -0.68458432
-4.271791 23.566088 -0.68458432
-4.1918688 23.570284 -0.68429816
-4.1178031 23.583336 -0.68429816
-4.0420089 23.586302 -0.68401194
-3.9678936 23.598885 -0.68401194
-3.8921008 23.601372 -0.68372571
-3.8106399 23.59441 -0.68315333
-3.7364876 23.606266 -0.68315333
-3.6607802 23.608009 -0.68286711
-3.3610182 23.632355 -0.68229479
-3.2867615 23.642797 -0.68229479
-3.2124724 23.653006 -0.68229479
-3.1394525 23.672892 -0.68258095
-3.0612226 23.652897 -0.68172234
-2.9881539 23.672316 -0.68200856
-2.9125535 23.671663 -0.68172234
-2.8381631 23.680698 -0.68172234
-2.7625995 23.679569 -0.68143618
-2.6870711 23.678198 -0.68114996
-2.6137691 23.696459 -0.68143618
-2.5351732 23.704996 -0.68143618
-2.3097091 23.707937 -0.68086374
-2.2352202 23.715076 -0.68086374
-2.1607091 23.721981 -0.68086374
-2.0846503 23.75889 -0.68172234
-2.0124547 23.74505 -0.68114996
-9.0845928 23.05954 -0.86411154
-8.80474 23.199909 -0.8651585
-8.7177505 23.190037 -0.86376256
-8.6483421 23.226675 -0.86411154
-8.5649595 23.225597 -0.86306453
-8.4851027 23.233612 -0.86236656
-8.4086704 23.250757 -0.86201751
-7.434145 23.276371 -0.8518967
-7.1352282 23.348835 -0.85119873
-6.9785886 23.375269 -0.8505007
-6.8909822 23.349152 -0.84875578
-6.8120046 23.351494 -0.84805775
-6.7358465 23.363174 -0.84770876
-6.6542044 23.355387 -0.84666181
-6.5808015 23.376175 -0.84666181
-6.5019755 23.377476 -0.84596378
-6.4258585 23.388149 -0.84561479
-6.3497324 23.398577 -0.84526581
-6.2695208 23.409849 -0.84491676
-6.1882901 23.400444 -0.84386986
-6.1096969 23.400429 -0.84317183
-6.0361552 23.419506 -0.84317183
-5.957624 23.418983 -0.8424738
-5.8840251 23.437584 -0.8424738
-5.8055596 23.43655 -0.84177583
-5.7271657 23.435257 -0.84107786
-5.6488366 23.433701 -0.84037989
-5.54285 23.315203 -0.83549392
-5.4650221 23.313042 -0.83479595
-5.4119911 23.417734 -0.83793694
-5.3539214 23.502832 -0.84037989
-5.2713141 23.480528 -0.83898389
-5.1931996 23.477457 -0.83828586
-5.1194205 23.493656 -0.83828586
-5.0414014 23.49008 -0.83758789
-4.965519 23.496023 -0.83723891
-4.8875751 23.51236 -0.83723891
-4.8096733 23.508018 -0.83654094
-4.7358003 23.52301 -0.83654094
-4.6599407 23.527967 -0.83619189
-4.5821881 23.522871 -0.83549392
-4.5063796 23.527338 -0.83514494
-4.432447 23.541378 -0.83514494
-4.3566546 23.545359 -0.83479595
-4.2826662 23.558929 -0.83479595
-4.2068691 23.562429 -0.83444697
-4.125278 23.556559 -0.83374894
-4.0471382 23.57011 -0.83374894
-3.977181 23.582014 -0.83374894
-3.9030793 23.594393 -0.83374894
-3.8225479 23.567078 -0.832353
-3.7526009 23.578316 -0.832353
-3.6743906 23.59063 -0.832353
-3.3721201 23.625635 -0.83200401
-3.2951269 23.616316 -0.83130598
-3.220921 23.626551 -0.83130598
-3.1479998 23.64646 -0.83165503
-3.0711288 23.63641 -0.830957
-2.9981027 23.655857 -0.83130598
-2.9225507 23.655241 -0.830957
-2.8506083 23.684151 -0.83165503
-2.7738698 23.673136 -0.830957
-2.6983457 23.671804 -0.83060801
-2.6239684 23.680164 -0.83060801
-2.5495651 23.68829 -0.83060801
-2.323024 23.721621 -0.830957
-2.2475517 23.718851 -0.83060801
-2.1753516 23.705509 -0.82990998
-2.0976064 23.722549 -0.83025897
-2.0239067 23.738979 -0.83060801
