# .PCD v0.7 - Point Cloud Data file format
VERSION 0.7
FIELDS x y z
SIZE 4 4 4
TYPE F F F
COUNT 1 1 1
WIDTH 577
HEIGHT 1
VIEWPOINT 0 0 0 1 0 0 0
POINTS 577
DATA ascii
4.4848828 -12.31833 0.075277381
4.4177394 -12.246937 0.074759021
4.3691401 -12.232508 0.074586235
4.3240128 -12.227321 0.074471042
4.2834411 -12.241592 0.074471042
4.2471013 -12.254248 0.074471042
4.2150807 -12.286445 0.074586235
4.1646609 -12.271952 0.074413449
4.1260867 -12.284975 0.074413449
4.0864592 -12.287675 0.074355856
4.0478358 -12.300452 0.074355856
3.9998729 -12.284587 0.074183069
3.9612598 -12.297092 0.074183069
3.9165273 -12.290423 0.074067876
3.8718758 -12.283595 0.073952682
3.8302863 -12.286153 0.073895089
3.7887204 -12.288569 0.073837489
3.7530165 -12.309976 0.073895089
3.7085443 -12.302559 0.073779896
3.6720245 -12.313509 0.073779896
3.6361542 -12.334575 0.073837489
3.5980322 -12.356165 0.073895089
3.5619662 -12.377016 0.073952682
3.5334513 -12.41638 0.074125469
3.4944267 -12.42742 0.074125469
3.4714518 -12.496139 0.074471042
3.952961 -12.256328 -1.4491425
3.9014895 -12.220664 -1.4435343
3.8571014 -12.213906 -1.441291
3.8157532 -12.216478 -1.4401695
3.7685697 -12.199918 -1.4368045
3.7222981 -12.193337 -1.4345613
3.6832352 -12.194815 -1.4334396
3.6477447 -12.215848 -1.4345613
3.6121581 -12.236779 -1.4356829
3.5764763 -12.257607 -1.4368045
3.5406995 -12.278332 -1.4379262
3.5048275 -12.298952 -1.4390478
3.4661717 -12.309902 -1.4390478
3.4354587 -12.349454 -1.4424126
3.4045308 -12.388935 -1.4457775
4.4729419 -12.355178 0.0022863811
4.3584151 -12.27938 0.0022671826
4.30655 -12.255276 0.0022602014
4.2647405 -12.2593 0.0022584558
4.2229486 -12.263183 0.0022567105
4.1844015 -12.276389 0.0022567105
4.1479588 -12.288751 0.0022567105
4.1061625 -12.292237 0.0022549652
4.0643849 -12.295582 0.00225322
4.0195169 -12.289281 0.0022497294
3.9747291 -12.282821 0.0022462388
3.9330714 -12.285724 0.0022444932
3.8884146 -12.278954 0.0022410026
3.8468297 -12.281567 0.0022392573
3.8052664 -12.284039 0.002237512
3.7607954 -12.276811 0.0022340212
3.7193079 -12.278996 0.0022322761
3.6864543 -12.309777 0.0022357667
3.6449234 -12.311709 0.0022340212
3.6083784 -12.32247 0.0022340212
3.5779932 -12.362562 0.0022392573
3.5418887 -12.383356 0.0022410026
3.5056887 -12.404044 0.0022427479
3.4806709 -12.473392 0.00225322
5.1505728 -12.250256 0.5298351
5.0775037 -12.183354 0.52623892
5.0277705 -12.171535 0.52504021
4.9705987 -12.141027 0.52304238
4.9174204 -12.11954 0.52144402
4.8739896 -12.115535 0.5206449
4.8227024 -12.10378 0.51944619
4.783102 -12.10874 0.5190466
4.737762 -12.105094 0.51824743
4.6924925 -12.101283 0.51744831
4.6544518 -12.115966 0.51744831
4.6092658 -12.111847 0.51664913
4.5676723 -12.116918 0.5162496
4.529583 -12.131207 0.5162496
4.487988 -12.136004 0.51585001
4.4498391 -12.150043 0.51585001
4.4082456 -12.154568 0.51545042
4.3632932 -12.149547 0.5146513
4.3284459 -12.172609 0.51505083
4.2868695 -12.176722 0.5146513
4.2453094 -12.180693 0.51425171
4.2070217 -12.193969 0.51425171
4.1654673 -12.197668 0.51385212
4.1239314 -12.201227 0.51345253
4.0855799 -12.214122 0.51345253
4.0409164 -12.207923 0.51265341
3.9963319 -12.201564 0.51185423
3.9601121 -12.213367 0.51185423
3.9186752 -12.216231 0.5114547
3.8802774 -12.228482 0.5114547
3.8358655 -12.221543 0.51065552
3.7953157 -12.234197 0.51065552
3.7531438 -12.226296 0.5098564
3.7118173 -12.228465 0.50945681
3.673382 -12.240066 0.50945681
3.6292348 -12.232384 0.50865769
3.5879798 -12.234136 0.5082581
3.5411947 -12.216553 0.5070594
3.4835656 -12.16037 0.50426239
3.4399109 -12.152022 0.50346321
3.3990302 -12.153146 0.50306368
3.3634899 -12.173396 0.50346321
3.3567479 -12.29959 0.5082581
4.3823152 -12.376857 -0.061682433
4.316956 -12.315064 -0.061305456
4.2585835 -12.27188 -0.061022729
4.2135143 -12.266282 -0.060928483
4.1717405 -12.269991 -0.060881365
4.1363602 -12.292514 -0.060928483
4.0914073 -12.286471 -0.06083424
4.0518036 -12.28906 -0.060787119
4.010076 -12.292221 -0.060739994
3.9622285 -12.276208 -0.06059863
3.9175618 -12.269543 -0.060504388
3.8759861 -12.272253 -0.060457267
3.825491 -12.246187 -0.060268778
3.7870014 -12.258144 -0.060268778
3.7397113 -12.241289 -0.060127411
3.7041259 -12.26255 -0.060174532
3.6627235 -12.264544 -0.060127411
3.6291485 -12.284949 -0.060174532
3.5939913 -12.316116 -0.060268778
3.5602028 -12.336333 -0.0603159
3.5269136 -12.366691 -0.060410142
3.4934673 -12.396961 -0.060504388
3.4679074 -12.456043 -0.060739994
5.6185961 -12.206155 0.77484757
5.5345764 -12.123864 0.76849633
5.4923401 -12.132098 0.76791894
5.4173675 -12.06734 0.76272255
5.3753662 -12.075181 0.76214516
5.3333693 -12.082876 0.76156771
5.2694397 -12.034644 0.7575261
5.2077303 -11.996202 0.75406176
5.1423645 -11.948325 0.75002009
5.1008806 -11.95524 0.7494427
5.0594039 -11.962012 0.74886531
5.0217991 -11.977848 0.74886531
4.9879799 -12.002783 0.7494427
4.9540553 -12.027623 0.75002009
4.916245 -12.043127 0.75002009
4.878386 -12.058513 0.75002009
4.8404789 -12.073779 0.75002009
4.8025241 -12.088926 0.75002009
4.7645221 -12.103954 0.75002009
4.7213206 -12.09944 0.74886531
4.6796842 -12.104902 0.74828798
4.6380577 -12.110223 0.74771059
4.5964441 -12.115401 0.7471332
4.5527282 -12.121233 0.74655581
4.513258 -12.125333 0.74597842
4.4785995 -12.148817 0.74655581
4.4404106 -12.162827 0.74655581
4.4055762 -12.186105 0.7471332
4.3639021 -12.190487 0.74655581
4.3277135 -12.203381 0.74655581
4.2959766 -12.235753 0.74771059
4.260797 -12.258618 0.74828798
4.2266226 -12.291558 0.7494427
4.193357 -12.313494 0.75002009
4.1514597 -12.317148 0.7494427
4.104269 -12.311909 0.74828798
4.0718322 -12.3437 0.7494427
4.0320868 -12.346238 0.74886531
3.98406 -12.330349 0.7471332
3.9392166 -12.323789 0.74597842
3.8944533 -12.317068 0.74482363
3.8497715 -12.310188 0.74366891
3.8022172 -12.293612 0.74193674
3.7606533 -12.295952 0.74135935
3.716218 -12.288596 0.74020457
3.6718662 -12.281082 0.73904979
3.6275985 -12.273412 0.73789507
3.5490873 -12.140406 0.72923434
3.4720764 -12.017238 0.72115093
3.3965421 -11.903898 0.71364498
3.3509884 -11.885688 0.71191287
3.310339 -11.876347 0.71075803
3.2703578 -11.877065 0.7101807
3.2356529 -11.896912 0.71075803
3.2008557 -11.916658 0.71133548
3.1638842 -11.936856 0.71191287
3.1314309 -11.966051 0.71306759
4.1984687 -12.344483 -0.13386355
4.1309915 -12.272307 -0.13293681
4.1081982 -12.332666 -0.13345167
4.0559478 -12.297313 -0.13293681
4.0110979 -12.290979 -0.13273086
3.9693968 -12.294003 -0.13262789
3.9155619 -12.25878 -0.13211304
3.8748882 -12.271697 -0.13211304
3.8295248 -12.254502 -0.13180411
3.7821615 -12.237808 -0.13149519
3.740778 -12.240066 -0.13139223
3.7023063 -12.251758 -0.13139223
3.6609397 -12.253746 -0.13128926
3.6224253 -12.265187 -0.13128926
3.5894713 -12.295706 -0.13149519
3.5563617 -12.32614 -0.13170114
3.5258336 -12.366104 -0.13201006
3.4896746 -12.386745 -0.13211304
3.458775 -12.426551 -0.13242194
5.3628206 -11.598015 1.0316122
5.3305087 -11.623867 1.0324193
5.291873 -11.630557 1.0316122
5.2553082 -11.647125 1.0316122
5.2186918 -11.663577 1.0316122
5.1860623 -11.689028 1.0324193
5.1533237 -11.714387 1.0332265
5.1263866 -11.758828 1.0356482
5.0954275 -11.783137 1.0364554
5.0701547 -11.826575 1.038877
5.03687 -11.85162 1.0396843
5.0073433 -11.885759 1.0412986
4.9776525 -11.919831 1.0429131
4.9477963 -11.953832 1.0445275
4.9139967 -11.97854 1.0453347
4.8800907 -12.003154 1.046142
4.8497996 -12.03692 1.0477563
4.8156524 -12.061355 1.0485635
4.7829523 -12.095798 1.0501779
4.7527905 -12.118389 1.0509851
4.7146959 -12.13326 1.0509851
4.6801314 -12.157315 1.0517924
4.6490102 -12.190588 1.0534067
4.6071715 -12.195807 1.0525995
4.5723233 -12.219558 1.0534067
4.5546699 -12.289948 1.0582501
4.9438195 -12.23268 0.38581604
4.9016447 -12.238873 0.38552287
4.8410249 -12.198477 0.38376385
4.7938199 -12.184886 0.38288429
4.7409797 -12.16264 0.3817116
4.6955361 -12.158828 0.38112527
4.6480417 -12.155662 0.38053891
4.6133752 -12.17955 0.38083211
4.5701842 -12.174471 0.38024575
4.5249395 -12.170034 0.37965941
4.4866838 -12.18419 0.37965941
4.4552407 -12.217003 0.38024575
4.4134393 -12.221539 0.37995258
4.3737869 -12.22517 0.37965941
4.3253345 -12.210589 0.37877989
4.281508 -12.215434 0.37848672
4.2463932 -12.238266 0.37877989
4.2035561 -12.231908 0.37819353
4.166193 -12.255242 0.37848672
4.1212883 -12.249325 0.37790036
4.0796242 -12.25273 0.3776072
4.0401168 -12.255289 0.37731403
3.9922845 -12.239416 0.3764345
3.9476671 -12.232875 0.37584814
3.9061728 -12.235695 0.37555498
3.8677139 -12.247907 0.37555498
3.8232489 -12.240917 0.37496865
3.7818198 -12.243319 0.37467545
3.7433376 -12.255139 0.37467545
3.7048185 -12.266839 0.37467545
3.6633987 -12.268841 0.37438229
3.624145 -12.27007 0.37408909
3.580632 -12.272428 0.37379596
3.5454588 -12.303441 0.37438229
3.5034518 -12.294683 0.37379596
3.4669578 -12.305024 0.37379596
3.4282832 -12.315855 0.37379596
3.4134648 -12.413296 0.3764345
3.393261 -12.501712 0.37877989
4.9090695 -12.260074 0.30568618
4.8726721 -12.274586 0.30568618
4.8355999 -12.299979 0.30591828
4.7700319 -12.239758 0.30406141
4.7171469 -12.21738 0.30313298
4.6680231 -12.204127 0.30243665
4.619029 -12.190688 0.30174035
4.5771937 -12.19578 0.30150822
4.5353723 -12.200728 0.30127612
4.5073857 -12.24306 0.30197242
4.4620495 -12.238377 0.30150822
4.4133906 -12.224126 0.30081192
4.3547649 -12.18145 0.29941925
4.3198113 -12.204495 0.29965135
4.278141 -12.208571 0.29941925
4.2463212 -12.240841 0.29988348
4.2078447 -12.254121 0.29988348
4.1693263 -12.26728 0.29988348
4.1201491 -12.241698 0.29895505
4.0816703 -12.254581 0.29895505
4.0368896 -12.248355 0.29849082
3.9921887 -12.241968 0.29802662
3.9506385 -12.244936 0.29779449
3.9060681 -12.238239 0.29733026
3.8645899 -12.240917 0.29709816
3.8261149 -12.252997 0.29709816
3.7846508 -12.255405 0.29686606
3.7432094 -12.257674 0.29663396
3.701791 -12.259803 0.29640183
3.6603963 -12.261792 0.29616973
3.6246877 -12.28282 0.29640183
3.5882285 -12.29352 0.29640183
3.5551343 -12.323943 0.29686606
3.5246265 -12.363893 0.29756239
3.4863186 -12.385136 0.29779449
3.4581125 -12.434552 0.29872292
3.431808 -12.483315 0.29965135
4.7878199 -12.288093 0.2317939
4.7419934 -12.284418 0.23144136
4.6998072 -12.289915 0.23126508
4.6434703 -12.257867 0.23038374
4.5838699 -12.216224 0.22932611
4.5315413 -12.193074 0.22862104
4.4932137 -12.207251 0.22862104
4.4514184 -12.211912 0.22844478
4.4028511 -12.197621 0.22791597
4.3611474 -12.201977 0.22773971
4.319458 -12.206192 0.22756344
4.2810898 -12.219702 0.22756344
4.245954 -12.242537 0.22773971
4.2074723 -12.255816 0.22773971
4.1689487 -12.268974 0.22773971
4.1208262 -12.253578 0.22721089
4.0812941 -12.256265 0.22703463
4.0427699 -12.269026 0.22703463
3.9980094 -12.262652 0.22668208
3.9502614 -12.246604 0.22615328
3.9148061 -12.26848 0.22632955
3.8702276 -12.261647 0.225977
3.8316875 -12.273746 0.225977
3.7872126 -12.266614 0.22562447
3.742821 -12.259326 0.22527194
3.7071769 -12.280597 0.22544821
3.6707239 -12.291542 0.22544821
3.6314054 -12.292789 0.22527194
3.596221 -12.32396 0.22562447
3.5574863 -12.335197 0.22562447
3.5269344 -12.375161 0.22615328
3.4907482 -12.395805 0.22632955
3.4625032 -12.445242 0.22703463
3.4366302 -12.504265 0.22791597
4.6571178 -12.296295 0.15558895
4.5623717 -12.27844 0.15499556
4.4996295 -12.227015 0.15416481
4.447515 -12.203506 0.15369008
4.4057641 -12.208011 0.1535714
4.3573074 -12.19354 0.15321536
4.3156471 -12.19774 0.15309669
4.2839093 -12.230115 0.15333405
4.2421937 -12.234064 0.15321536
4.2037387 -12.247331 0.15321536
4.1588163 -12.241538 0.152978
4.1235209 -12.264022 0.15309669
4.0786662 -12.257938 0.15285933
4.0391536 -12.260487 0.15274064
3.9975214 -12.263607 0.15262197
3.9497793 -12.247552 0.15226594
3.9082477 -12.250372 0.15214725
3.8667376 -12.253053 0.15202856
3.8252492 -12.255593 0.15190989
3.7837832 -12.257996 0.15179121
3.745255 -12.269822 0.15179121
3.7009194 -12.262379 0.15155385
3.6623776 -12.273945 0.15155385
3.6294513 -12.304574 0.15179121
3.5935721 -12.325516 0.15190989
3.5548325 -12.336744 0.15190989
3.5215268 -12.367088 0.15214725
3.4853613 -12.387717 0.15226594
3.4544485 -12.427511 0.15262197
3.436538 -12.51545 0.1535714
4.0922399 -12.464364 -0.52760738
3.9648654 -12.337646 -0.5211584
3.9260876 -12.350041 -0.5211584
3.8782656 -12.333723 -0.5199492
3.8276138 -12.307687 -0.51833695
3.7859876 -12.310102 -0.51793391
3.7385616 -12.293261 -0.51672471
3.6999228 -12.304945 -0.51672471
3.660543 -12.306293 -0.51632166
3.6190424 -12.308146 -0.51591855
3.5782065 -12.32008 -0.51591855
3.5394843 -12.331261 -0.51591855
3.5110788 -12.370542 -0.51712781
3.4749005 -12.39113 -0.51753086
3.4466429 -12.440498 -0.5191431
3.4154677 -12.480174 -0.5203523
3.4053786 -12.607172 -0.52518904
3.981262 -12.339622 -0.60053432
3.936399 -12.333038 -0.59960616
3.8886075 -12.316768 -0.59821385
3.8379786 -12.290784 -0.59635752
3.7934494 -12.283693 -0.59542936
3.7519214 -12.285996 -0.59496522
3.7104163 -12.28816 -0.59450114
3.6689348 -12.290185 -0.59403706
3.6274774 -12.29207 -0.59357297
3.5909905 -12.302779 -0.59357297
3.5578628 -12.333195 -0.59450114
3.5245793 -12.363523 -0.59542936
3.4938502 -12.403379 -0.59682161
3.4634125 -12.453391 -0.59867799
3.4423423 -12.521402 -0.60146254
3.9265387 -12.290286 -0.67408711
3.8728685 -12.254948 -0.67147034
3.8313715 -12.257523 -0.67094696
3.7840004 -12.240875 -0.66937685
3.7426078 -12.243152 -0.66885352
3.7012382 -12.245289 -0.66833013
3.6656082 -12.266425 -0.66885352
3.6263678 -12.26767 -0.66833013
3.5828683 -12.270041 -0.66780674
3.546447 -12.280618 -0.66780674
3.5188055 -12.330112 -0.66990018
3.4881792 -12.369942 -0.67147034
3.4626946 -12.428941 -0.67408711
3.4421709 -12.507158 -0.67775065
4.0069017 -12.452699 -1.2328174
3.8567314 -12.249753 -1.2102315
3.8152647 -12.252304 -1.2092904
3.7679522 -12.235689 -1.2064672
3.7265899 -12.237944 -1.2055261
3.6795025 -12.220996 -1.2027029
3.6410909 -12.232495 -1.2027029
3.6054575 -12.253423 -1.2036439
3.5718713 -12.273623 -1.204585
3.5360508 -12.294352 -1.2055261
3.4952612 -12.30601 -1.2055261
3.4592776 -12.326514 -1.2064672
3.4280205 -12.355908 -1.2083493
3.3970926 -12.395418 -1.2111726
3.3659501 -12.434855 -1.2139958
3.8883469 -12.277122 -0.7425136
3.8399734 -12.250495 -0.74020404
3.7955639 -12.243424 -0.73904926
3.7570813 -12.255288 -0.73904926
3.7156696 -12.257476 -0.73847193
3.677145 -12.269089 -0.73847193
3.6357503 -12.271007 -0.73789454
3.5971818 -12.282368 -0.73789454
3.5585778 -12.293609 -0.73789454
3.5226805 -12.314327 -0.73847193
3.4893994 -12.344548 -0.73962665
3.4640076 -12.403533 -0.7425136
3.4382794 -12.462479 -0.74540049
3.4226983 -12.559917 -0.75059694
3.9139097 -12.326789 -0.82475698
3.8661816 -12.310464 -0.82284188
3.8156307 -12.284432 -0.82028842
3.777019 -12.296359 -0.82028842
3.7296572 -12.279522 -0.81837338
3.6910615 -12.291178 -0.81837338
3.6517308 -12.29251 -0.81773502
3.6109469 -12.304552 -0.81773502
3.567342 -12.306874 -0.81709665
3.5308101 -12.317405 -0.81709665
3.5024254 -12.356628 -0.81901175
3.4743705 -12.406005 -0.82156521
3.4487052 -12.464945 -0.82475698
3.4178853 -12.514815 -0.82731044
4.1790009 -12.370805 -0.22723033
4.117897 -12.317504 -0.22600865
4.0813308 -12.329668 -0.22600865
4.0394611 -12.332928 -0.22583413
3.9945235 -12.326538 -0.22548509
3.9527223 -12.329506 -0.22531056
3.9018624 -12.303745 -0.22461247
3.8571963 -12.296865 -0.22426341
3.8155792 -12.299374 -0.22408891
3.7710474 -12.292185 -0.22373985
3.7265983 -12.284838 -0.22339079
3.6851096 -12.286909 -0.22321628
3.648638 -12.297789 -0.22321628
3.6078365 -12.309821 -0.22321628
3.5697794 -12.33132 -0.22339079
3.5386884 -12.36108 -0.22373985
3.5047247 -12.381145 -0.22391437
3.4739025 -12.420977 -0.22443794
3.4481983 -12.48001 -0.22531056
3.9018047 -12.261661 -0.91274238
3.8572721 -12.25483 -0.91132289
3.8128207 -12.24784 -0.90990335
3.7713878 -12.250225 -0.90919358
3.7328839 -12.262012 -0.90919358
3.6943433 -12.27368 -0.90919358
3.6529198 -12.275665 -0.9084838
3.6143365 -12.28708 -0.9084838
3.5778646 -12.29775 -0.9084838
3.5419703 -12.318516 -0.90919358
3.5114362 -12.358367 -0.91132289
3.4785221 -12.398754 -0.91345215
3.4528813 -12.457681 -0.91700095
3.4370008 -12.544829 -0.92267895
4.2110643 -12.43259 -0.30382624
4.0490689 -12.328546 -0.30034465
4.0041356 -12.322191 -0.29988045
3.9592822 -12.315675 -0.29941621
3.9114783 -12.299473 -0.29871991
3.8698177 -12.302164 -0.29848778
3.8192651 -12.276078 -0.29755938
3.7777386 -12.278461 -0.29732725
3.739146 -12.290269 -0.29732725
3.6976352 -12.292381 -0.29709515
3.6561484 -12.294356 -0.29686305
3.6175065 -12.305781 -0.29686305
3.5809791 -12.316461 -0.29686305
3.5477927 -12.346866 -0.29732725
3.5171828 -12.386801 -0.29802358
3.4787869 -12.408022 -0.29825568
3.4531388 -12.46706 -0.29941621
3.431982 -12.535104 -0.30080885
3.9339178 -12.298367 -0.98595053
3.8862422 -12.282146 -0.98365939
3.8387072 -12.265744 -0.98136824
3.794261 -12.258694 -0.97984082
3.7498965 -12.251483 -0.97831339
3.7113888 -12.263204 -0.97831339
3.6728446 -12.274803 -0.97831339
3.6314371 -12.276719 -0.97754967
3.5977943 -12.297009 -0.97831339
3.5569956 -12.308873 -0.97831339
3.5259359 -12.338548 -0.97984082
3.4925721 -12.368755 -0.98136824
3.4644091 -12.418084 -0.98442304
3.4359708 -12.467358 -0.9874779
4.0784116 -12.369597 -0.3717705
4.0240369 -12.334832 -0.37033951
3.976059 -12.318874 -0.36948094
3.9312601 -12.312259 -0.36890852
3.8835332 -12.295952 -0.36804995
3.8359478 -12.279467 -0.36719134
3.7885056 -12.262803 -0.36633274
3.7470431 -12.265085 -0.36604655
3.7084928 -12.276796 -0.36604655
3.6613283 -12.259651 -0.36518794
3.6249359 -12.270461 -0.36518794
3.5885131 -12.281162 -0.36518794
3.5505376 -12.302599 -0.36547416
3.5200922 -12.342531 -0.36633274
3.4840097 -12.363151 -0.36661893
3.4558713 -12.412555 -0.36776373
3.4301062 -12.471542 -0.36919472
3.4171002 -12.578724 -0.37205672
3.9485624 -12.288114 -1.0488441
3.9039078 -12.281458 -1.0472193
3.8533633 -12.255625 -1.0439695
3.8118868 -12.258152 -1.0431571
3.7675061 -12.251011 -1.0415323
3.7289999 -12.262786 -1.0415323
3.6904569 -12.274441 -1.0415323
3.6490414 -12.276419 -1.0407199
3.6132617 -12.297386 -1.0415323
3.5773864 -12.31825 -1.0423447
3.5386698 -12.329428 -1.0423447
3.5080645 -12.369253 -1.0447819
3.4772441 -12.409008 -1.0472193
3.4435532 -12.439085 -1.0488441
3.4228325 -12.517147 -1.0545311
4.0244164 -12.331646 -0.45159948
3.9733884 -12.306182 -0.45020351
3.9286344 -12.299562 -0.44950551
3.8779473 -12.27372 -0.44810954
3.8304381 -12.25722 -0.44706252
3.7860181 -12.250095 -0.44636455
3.7445977 -12.25237 -0.44601557
3.7003133 -12.244937 -0.44531757
3.6589699 -12.246925 -0.44496858
3.6233034 -12.267945 -0.44531757
3.5819483 -12.269673 -0.44496858
3.5461507 -12.290468 -0.44531757
3.5129941 -12.320773 -0.44601557
3.4850941 -12.370231 -0.44741154
3.4515662 -12.400377 -0.44810954
3.4231744 -12.449709 -0.44950551
3.4154286 -12.57615 -0.45369345
