# .PCD v0.7 - Point Cloud Data file format
VERSION 0.7
FIELDS x y z
SIZE 4 4 4
TYPE F F F
COUNT 1 1 1
WIDTH 151
HEIGHT 1
VIEWPOINT 0 0 0 1 0 0 0
POINTS 151
DATA ascii
5.6844711 -20.9725 0.12492474
5.618556 -20.990255 0.12492474
5.5511341 -20.987501 0.12480956
5.4826431 -20.995163 0.12475196
5.4066629 -20.973551 0.12452157
5.3209996 -20.91291 0.12406081
5.2820897 -21.036203 0.12469436
5.2087541 -21.023575 0.12452157
5.7138247 -20.965252 0.0037856188
5.6427326 -20.963789 0.0037821284
5.5742755 -20.971748 0.0037803829
5.5083632 -20.989157 0.0037803829
5.4410424 -20.986048 0.0037768923
5.3428445 -20.8771 0.0037542032
5.3115263 -21.029516 0.0037786376
5.2393422 -21.03731 0.0037768923
5.6572928 -21.003672 0.86827427
5.5810161 -20.982712 0.86667591
5.5099988 -20.980814 0.86587685
5.4415531 -20.988346 0.86547726
5.3359933 -20.850447 0.85908407
5.695333 -20.970039 -0.10220718
5.6268363 -20.978172 -0.10216006
5.553225 -20.966743 -0.10201869
5.4873285 -20.984087 -0.10201869
5.4113827 -20.96249 -0.1018302
5.3208184 -20.882484 -0.10135899
5.2746902 -20.976683 -0.10173596
5.2111712 -21.002855 -0.10178308
5.6964078 -20.989193 -0.22355214
5.6226816 -20.97801 -0.22324322
5.554193 -20.985903 -0.22314025
5.4857111 -20.993572 -0.22303727
5.4047594 -20.952604 -0.22241946
5.3142605 -20.872572 -0.22138973
5.2827415 -21.024944 -0.22283132
5.2070513 -21.002611 -0.22241946
5.6350455 -21.00761 0.63677239
5.5613351 -20.996223 0.63589281
5.4939485 -20.993294 0.63530654
5.4154549 -20.962063 0.63384062
5.3322678 -20.911177 0.63178843
5.290966 -21.024754 0.63472015
5.7097011 -21.022484 0.50483477
5.625493 -20.972727 0.50321007
5.5595775 -20.990297 0.50321007
5.4910793 -20.997986 0.50297791
5.3962321 -20.888355 0.49996051
5.335525 -20.92458 0.50042474
5.2856202 -21.019718 0.50228161
5.7012725 -21.00663 0.3830328
5.6223111 -20.976149 0.38215145
5.556385 -20.99371 0.38215145
5.4828224 -20.982038 0.38162264
5.3919115 -20.902342 0.37985995
5.3286848 -20.928869 0.38003623
5.2823944 -21.023083 0.38144636
5.6127501 -20.969915 0.25717869
5.541738 -20.968109 0.25694135
5.4758372 -20.985416 0.25694135
5.3974237 -20.954096 0.25634795
5.3069544 -20.874033 0.25516114
5.2680898 -20.997293 0.2564666
5.4859796 -20.552748 -0.85650551
5.4300766 -20.588257 -0.85731167
5.3578086 -20.576208 -0.85610247
5.2906504 -20.583261 -0.85569936
5.2185812 -20.570726 -0.85449016
5.1539307 -20.587021 -0.85449016
5.0868301 -20.59341 -0.85408711
5.0197415 -20.599583 -0.85368407
4.9550009 -20.615252 -0.85368407
5.543344 -20.666355 -0.99222749
5.4655991 -20.635387 -0.98990709
5.3830504 -20.584808 -0.98665845
5.3319454 -20.639376 -0.98851478
5.252265 -20.59795 -0.98573023
5.1753354 -20.565912 -0.98340976
5.1071095 -20.58296 -0.98340976
5.0436373 -20.588324 -0.98294574
4.9836259 -20.623484 -0.98387384
4.9823451 -20.921698 -0.99733257
5.5167427 -20.553278 -1.1131858
5.4393568 -20.522242 -1.110569
5.3900242 -20.597193 -1.1137091
5.3153019 -20.57535 -1.1116157
5.2457027 -20.572592 -1.110569
5.1639929 -20.521179 -1.1069055
5.1019039 -20.546993 -1.1074288
5.0349531 -20.553221 -1.1069055
4.9844275 -20.627178 -1.1100456
4.9811039 -20.884727 -1.1231296
5.4815674 -20.638449 -1.2327112
5.3939333 -20.568649 -1.2275147
5.3242888 -20.566164 -1.22636
5.252244 -20.553768 -1.2246277
5.1803303 -20.541126 -1.2228956
5.1181808 -20.566986 -1.223473
5.0487871 -20.563574 -1.2223183
4.981812 -20.56963 -1.2217408
4.9588723 -20.759972 -1.2321337
5.55474 -20.57962 -1.3609767
5.4771957 -20.548759 -1.357785
5.4187441 -20.57457 -1.3584232
5.3515668 -20.581835 -1.357785
5.2819161 -20.579214 -1.3565083
5.2147856 -20.586031 -1.3558698
5.1452413 -20.582951 -1.354593
5.0781603 -20.589325 -1.3539547
5.0134521 -20.605177 -1.3539547
4.9533572 -20.640232 -1.3552314
4.9690208 -20.995567 -1.377574
5.6544147 -20.977575 -0.37854266
5.5936327 -21.014559 -0.37889174
5.526166 -21.011724 -0.37854266
5.4550982 -21.009628 -0.37819365
5.3865829 -21.016977 -0.37801912
5.2886219 -20.907793 -0.3757503
5.2495756 -21.031008 -0.37767008
5.1762981 -21.01827 -0.37714648
5.1102419 -21.03443 -0.37714648
5.6903362 -21.038092 -0.50506181
5.6061492 -20.988255 -0.50343704
5.5350847 -20.986431 -0.50297284
5.4691267 -21.003717 -0.50297284
5.4018011 -21.000486 -0.50250864
5.3161125 -20.939837 -0.50065178
5.2515011 -20.976746 -0.50111598
5.197566 -21.041666 -0.50227648
5.1280031 -21.027857 -0.50158018
5.0559068 -21.035028 -0.50134814
5.6298356 -20.989115 -0.62104845
5.5587521 -20.987373 -0.62047613
5.4902625 -20.995062 -0.62018991
5.419282 -20.992849 -0.61961752
5.3533044 -21.009771 -0.61961752
5.2555947 -20.900459 -0.61589694
5.2163782 -21.023588 -0.61904508
5.1479287 -21.030161 -0.61875892
5.0771446 -21.026798 -0.61818653
5.0147357 -21.041769 -0.61818653
5.6222053 -20.97599 -0.75697005
5.5486159 -20.964565 -0.75592309
5.4827266 -20.981894 -0.75592309
5.4167829 -20.999014 -0.75592309
5.3458586 -20.996555 -0.75522506
5.2506742 -20.896929 -0.75103718
5.2042217 -20.990927 -0.75382912
5.1382508 -21.007174 -0.75382912
5.0722299 -21.023212 -0.75382912
5.0084686 -21.048765 -0.75417811
