# .PCD v0.7 - Point Cloud Data file format
VERSION 0.7
FIELDS x y z
SIZE 4 4 4
TYPE F F F
COUNT 1 1 1
WIDTH 93
HEIGHT 1
VIEWPOINT 0 0 0 1 0 0 0
POINTS 93
DATA ascii
23.977901 11.474874 -2.0329978
23.860699 11.326812 -2.0200148
23.760853 11.188083 -2.0085592
23.624229 11.03323 -1.9940486
23.541155 10.90449 -1.9841204
23.403141 10.751409 -1.9696099
23.418657 10.669557 -1.9680824
23.433887 10.587727 -1.9665551
23.494331 10.526285 -1.9688461
23.547335 10.456409 -1.9703736
23.570942 10.378366 -1.9696099
23.722233 10.356108 -1.9795382
23.955965 10.368651 -1.9963398
23.896788 10.254032 -1.9887027
23.7729 10.112572 -1.9757196
23.657553 9.975852 -1.9635001
23.559978 9.8476601 -1.9528083
23.443409 9.7125483 -1.940589
23.307777 9.570693 -1.9268421
23.217667 9.448576 -1.9169139
23.099279 9.3159199 -1.9046944
22.998806 9.191514 -1.8940026
22.890091 9.0601625 -1.8825469
22.788483 8.937254 -1.871855
22.66774 8.8078518 -1.8596356
22.620857 8.7079353 -1.8535258
22.629469 8.6297264 -1.8519984
22.647141 8.5550709 -1.8512348
22.664564 8.4803905 -1.850471
22.663048 8.3987436 -1.8481798
22.661242 8.3172035 -1.8458889
22.677885 8.242568 -1.8451251
22.694284 8.1679096 -1.8443613
22.701052 8.0898714 -1.8428339
22.688742 8.00525 -1.8397791
22.685537 7.9240723 -1.8374879
22.700895 7.8495097 -1.8367242
22.716009 7.774929 -1.8359605
22.711994 7.6939225 -1.8336694
22.709021 7.6090617 -1.8313782
22.732811 7.5376849 -1.8313782
22.727955 7.4569106 -1.829087
22.732302 7.3793197 -1.8275597
22.764868 7.3109059 -1.8283234
22.759214 7.2303004 -1.8260323
22.772303 7.1557794 -1.8252686
22.785149 7.0812473 -1.8245049
22.807285 7.0096216 -1.8245049
22.819653 6.9350405 -1.8237411
22.784031 6.846108 -1.8191589
22.776751 6.7659831 -1.8168677
22.750063 6.6803432 -1.8130492
22.791239 6.6104293 -1.8145766
22.449268 9.6833315 -1.9896353
22.342102 9.5540085 -1.9774489
22.254347 9.4293423 -1.9668874
22.155201 9.3053675 -1.9555134
22.083099 9.1936064 -1.9465766
22.001303 9.0785923 -1.9368277
22.03894 9.0132017 -1.9376401
22.104101 8.9588776 -1.9408897
22.141386 8.8931074 -1.9417021
22.15069 8.8161392 -1.9400772
22.206097 8.7574739 -1.9425145
22.270638 8.7021608 -1.9457642
22.28857 8.6285591 -1.9449518
22.343487 8.5691996 -1.9473891
22.399738 8.5056658 -1.9498265
22.417017 8.4317493 -1.9490139
22.499439 8.3821497 -1.9538885
22.56307 8.3252087 -1.9571383
22.598475 8.2577047 -1.9579507
22.614931 8.1832829 -1.9571383
22.649912 8.1155586 -1.9579507
22.665905 8.0410223 -1.9571383
22.691053 7.9697785 -1.9571383
22.687733 7.8886418 -1.9547009
22.702978 7.8140888 -1.9538885
22.708546 7.7362933 -1.9522636
22.72463 7.6577649 -1.9514512
22.720209 7.5768862 -1.9490139
22.734434 7.5023527 -1.9482015
22.738937 7.4247131 -1.9465766
22.752665 7.3501811 -1.9457642
22.766151 7.2756243 -1.9449518
22.779394 7.2010679 -1.9441395
22.782875 7.1235271 -1.9425145
22.786095 7.0460358 -1.9408897
22.789057 6.9685822 -1.9392648
22.791756 6.8911924 -1.9376401
22.794191 6.8138542 -1.9360151
22.786806 6.7337461 -1.9335778
22.770739 6.6469817 -1.9303282
