# .PCD v0.7 - Point Cloud Data file format
VERSION 0.7
FIELDS x y z
SIZE 4 4 4
TYPE F F F
COUNT 1 1 1
WIDTH 63
HEIGHT 1
VIEWPOINT 0 0 0 1 0 0 0
POINTS 63
DATA ascii
-13.068343 -15.637518 0.11714935
-13.108212 -15.486389 0.11663099
-13.189213 -15.4832 0.11691896
-13.237787 -15.44169 0.11691896
-13.067563 -15.482356 0.0035290555
-13.129083 -15.456472 0.0035325463
-13.210063 -15.453156 0.0035412728
-13.053901 -15.4723 0.80793858
-13.102446 -15.431211 0.80793858
-13.157351 -15.39757 0.80833817
-13.225213 -15.37888 0.80953693
-13.015419 -15.591121 -0.095515884
-13.074379 -15.463221 -0.09523315
-13.135855 -15.437303 -0.095327392
-13.203805 -15.418742 -0.095468767
-12.998102 -15.56497 -0.20841525
-13.076263 -15.460093 -0.20810634
-13.144217 -15.441777 -0.20841525
-13.218696 -15.430775 -0.20882714
-13.065234 -15.550919 0.59455538
-13.075312 -15.46399 0.59279639
-13.143259 -15.445678 0.59367591
-13.198215 -15.411907 0.59396911
-13.292234 -15.42338 0.59602129
-13.054632 -15.538402 0.47025073
-13.084023 -15.474406 0.46955436
-13.13257 -15.433228 0.46955436
-13.200499 -15.414675 0.47025073
-13.065212 -15.545602 0.35729751
-13.094611 -15.48158 0.3567687
-13.136703 -15.432751 0.35659242
-13.201947 -15.416488 0.35712126
-13.045624 -15.511624 0.24008884
-13.074903 -15.447673 0.23973279
-13.116884 -15.398909 0.2396141
-13.204255 -15.403167 0.2403262
-13.11141 -15.567213 -0.81942385
-13.163585 -15.4313 -0.81660247
-13.218508 -15.397451 -0.81700552
-13.299463 -15.393662 -0.81902081
-13.044062 -15.525904 -0.94024932
-13.086327 -15.477218 -0.93978524
-13.128409 -15.428423 -0.9393211
-13.183313 -15.394689 -0.93978524
-13.277254 -15.40617 -0.94303381
-13.053951 -15.444516 -1.0577096
-13.095934 -15.395825 -1.0571862
-13.157228 -15.369778 -1.058233
-13.26143 -15.398769 -1.0629432
-13.121576 -15.45835 -0.35323671
-13.183063 -15.432259 -0.35358575
-13.257541 -15.421102 -0.35428384
-13.148693 -15.419496 -0.46954963
-13.216603 -15.400872 -0.47024596
-13.284519 -15.381976 -0.47094223
-13.062675 -15.449476 -0.57811886
-13.111144 -15.408364 -0.57811886
-13.172493 -15.38228 -0.57869124
-13.2246 -15.350702 -0.57897747
-13.052502 -15.530776 -0.70706379
-13.097987 -15.387591 -0.70427185
-13.159272 -15.36154 -0.70496976
-13.224372 -15.345136 -0.70601678
