# .PCD v0.7 - Point Cloud Data file format
VERSION 0.7
FIELDS x y z
SIZE 4 4 4
TYPE F F F
COUNT 1 1 1
WIDTH 565
HEIGHT 1
VIEWPOINT 0 0 0 1 0 0 0
POINTS 565
DATA ascii
-7.9923353 7.9307342 0.064622201
-7.9376783 7.9289403 0.064391822
-7.9070611 7.9453726 0.064334229
-7.8750267 7.9630666 0.064276636
-7.8415651 7.9820075 0.064219035
-7.7954822 7.9851484 0.064046249
-7.763392 8.0024242 0.063988656
-7.7312684 8.0195789 0.063931055
-7.6991162 8.0366106 0.063873462
-7.6807275 8.0679979 0.063931055
-7.641593 8.0775652 0.063815869
-7.6161776 8.1015329 0.063815869
-7.5975199 8.1327229 0.063873462
-7.5705085 8.1578732 0.063873462
-7.5584087 8.196311 0.063988656
-7.5461407 8.2347555 0.064103849
-7.553916 8.2953711 0.064391822
-7.5479569 8.3412981 0.064564608
-7.5484753 8.3946981 0.064794995
-7.5902128 8.49158 0.065370947
-8.2131958 7.9594169 -1.2865064
-8.1383772 7.9365902 -1.2786551
-8.0779581 7.9273009 -1.2730469
-8.023366 7.926095 -1.2685604
-7.9632063 7.9162164 -1.2629522
-7.9172344 7.9200997 -1.2595874
-7.878314 7.9308281 -1.2573442
-7.8463831 7.948463 -1.2562225
-7.8213725 7.9730749 -1.2562225
-7.7962871 7.9976058 -1.2562225
-7.7725234 8.0207024 -1.2562225
-7.745883 8.0464334 -1.2562225
-7.7205648 8.0707293 -1.2562225
-7.6951728 8.094943 -1.2562225
-7.6901627 8.1407604 -1.2595874
-7.6849422 8.1866236 -1.2629522
-7.6795077 8.2325373 -1.2663172
-7.6873655 8.2930765 -1.2719253
-7.681459 8.3391228 -1.2752903
-7.6753402 8.3852129 -1.2786551
-7.6756887 8.4387026 -1.2831416
-7.6824379 8.49965 -1.2887497
-7.6623325 8.5311403 -1.2898713
-7.6487203 8.5700026 -1.2921146
-7.6349373 8.6088667 -1.2943579
-8.0696344 7.924355 0.0019669859
-7.9949017 7.9004722 0.0019547688
-7.9402957 7.898736 0.0019477874
-7.9083719 7.9165697 0.0019460419
-7.8764167 7.9342785 0.0019442966
-7.8444271 7.9518676 0.0019425515
-7.8194079 7.9764714 0.0019425515
-7.7803507 7.9866743 0.0019390606
-7.7413096 7.9967098 0.0019355702
-7.7092137 8.0137854 0.0019338247
-7.684001 8.0379639 0.0019338247
-7.6518211 8.0548162 0.0019320793
-7.6196136 8.0715437 0.001930334
-7.5942173 8.0954428 0.001930334
-7.5823884 8.1338873 0.0019338247
-7.5757604 8.180995 0.0019390606
-7.5635681 8.2194691 0.0019425515
-7.5579557 8.2653265 0.0019477874
-7.5521321 8.3112278 0.0019530233
-7.574369 8.3855371 0.0019652406
-7.606636 8.4775867 0.0019809485
-7.890522 7.8222728 0.44272798
-7.8376265 7.8187823 0.44112968
-7.7989287 7.8291998 0.44033051
-7.760242 7.8394537 0.43953139
-7.7215691 7.8495398 0.43873224
-7.6912627 7.8652678 0.43833265
-7.6581798 7.8835597 0.43793309
-7.6333761 7.9075785 0.43793309
-7.5946679 7.9170928 0.43713394
-7.5697594 7.9409118 0.43713394
-7.5516415 7.9719129 0.4375335
-7.5265608 7.9955964 0.4375335
-7.4945817 8.0119028 0.43713394
-7.4693756 8.0354071 0.43713394
-7.45087 8.0661774 0.4375335
-7.4389992 8.1042728 0.43833265
-7.4269614 8.1423759 0.4391318
-7.4080524 8.1730747 0.43953139
-7.4023886 8.2185917 0.44073009
-7.3831935 8.2492542 0.44112968
-7.3638773 8.2798796 0.44152927
-7.3628263 8.3342199 0.44312757
-7.3431959 8.3648214 0.4435271
-7.3300114 8.402915 0.44432628
-7.3231978 8.4485626 0.44552499
-7.368309 8.554842 0.4499203
-8.0465631 7.9048619 -0.0529649
-7.9932494 7.9019756 -0.052776411
-7.9683843 7.9270492 -0.052776411
-7.9010458 7.9095864 -0.05249368
-7.8761568 7.9343705 -0.05249368
-7.8441715 7.9519544 -0.052446563
-7.812151 7.9694166 -0.052399438
-7.7731233 7.9795904 -0.052305192
-7.7410617 7.9967866 -0.052258074
-7.7089701 8.0138569 -0.052210953
-7.676846 8.0308075 -0.052163828
-7.6446934 8.0476332 -0.052116707
-7.6193724 8.0716105 -0.052116707
-7.5925636 8.0968332 -0.052116707
-7.5739064 8.1279621 -0.052163828
-7.5619197 8.1663942 -0.052258074
-7.5497675 8.2048292 -0.052352317
-7.5576873 8.2654123 -0.052587926
-7.5653024 8.3261242 -0.052823536
-7.5726099 8.3869648 -0.053059142
-8.0174532 7.7932634 0.64435905
-7.9643707 7.7905016 0.64204955
-7.9185014 7.7944856 0.64031738
-7.8797836 7.8052778 0.6391626
-7.8410749 7.815907 0.63800788
-7.7953267 7.8193002 0.63627571
-7.74124 7.8167477 0.63396615
-7.6969919 7.8183494 0.63223404
-7.637466 7.8068285 0.62934709
-7.5906534 7.8106432 0.62761497
-7.5452609 7.8129191 0.62588286
-7.5137634 7.8293843 0.62530547
-7.4891286 7.8529515 0.62530547
-7.4850345 7.8981681 0.62703758
-7.4807272 7.9434381 0.6287697
-7.483037 7.9960427 0.63107926
-7.4646811 8.0268202 0.63165665
-7.4529872 8.064888 0.63281143
-7.4329562 8.0969095 0.63338876
-7.4209452 8.1349669 0.63454354
-7.4087701 8.1730261 0.63569838
-7.3897409 8.2036762 0.63627571
-7.3772573 8.2417212 0.63743049
-7.3579664 8.2723141 0.63800788
-7.3532391 8.3165369 0.63973999
-7.3322139 8.3483715 0.64031738
-7.3125167 8.3788843 0.64089477
-7.2927032 8.4093542 0.64147216
-7.2662473 8.4322243 0.64147216
-7.2527161 8.47017 0.64262694
-7.2131228 8.4777126 0.64147216
-7.1993537 8.5155725 0.64262694
-7.1918397 8.5610714 0.64435905
-7.1905146 8.6142664 0.64666861
-7.2144313 8.6982641 0.65128767
-8.0927067 7.9423695 -0.11635832
-7.9575725 7.9084339 -0.11512265
-7.9114885 7.9121704 -0.11481374
-7.8795466 7.9298902 -0.11471076
-7.8419371 7.9389997 -0.11450483
-7.8015666 7.9506793 -0.11429888
-7.7695742 7.9679866 -0.11419591
-7.7445049 7.9923549 -0.11419591
-7.6985593 7.9950271 -0.11388699
-7.6664958 8.0119448 -0.11378402
-7.6412868 8.0359917 -0.11378402
-7.6160045 8.0599566 -0.11378402
-7.5906444 8.0838442 -0.11378402
-7.5652118 8.1076498 -0.11378402
-7.5600886 8.1533842 -0.11409294
-7.5412102 8.1844511 -0.11419591
-7.5424557 8.2376165 -0.1146078
-7.5501695 8.2982664 -0.11512265
-7.577682 8.3813105 -0.11594643
-7.6515045 8.5166979 -0.11749101
-8.0726089 7.8396268 0.90810931
-7.9397097 7.7617836 0.89600116
-7.8442683 7.7167516 0.88792908
-7.7987456 7.7203097 0.8855074
-7.7673965 7.7377334 0.8847003
-7.3982997 7.4161439 0.84514701
-7.3469119 7.4110193 0.84191817
-7.3235922 7.4340649 0.84191817
-7.3071709 7.4641614 0.8427254
-7.2988882 7.500103 0.84433985
-7.2878242 7.5386057 0.84595424
-7.2710075 7.5686545 0.84676147
-7.2471929 7.5914607 0.84676147
-7.2575889 7.6503644 0.85079753
-7.3018503 7.7456913 0.85886955
-7.393259 7.892314 0.87259209
-7.4430904 7.9957938 0.88147146
-7.4449935 8.048418 0.8847003
-7.4331536 8.0864515 0.88631463
-7.4278693 8.1318521 0.88873631
-7.4089794 8.1625309 0.88954347
-7.4033175 8.2079811 0.89196515
-7.3774934 8.2312002 0.89196515
-7.3515992 8.2543354 0.89196515
-7.3307862 8.2861366 0.89277232
-7.3047171 8.3091278 0.89277232
-7.2785783 8.3320341 0.89277232
-7.2458363 8.3473301 0.89196515
-7.2195773 8.3700514 0.89196515
-7.1997299 8.4002609 0.89277232
-7.1618524 8.4064074 0.89115793
-7.1275034 8.4224968 0.8903507
-7.1074181 8.4524803 0.89115793
-7.0744424 8.4671135 0.8903507
-7.0541692 8.4969702 0.89115793
-7.0337806 8.5267811 0.89196515
-7.0195856 8.5642605 0.89357954
-7.011517 8.6094656 0.89600116
-6.9969659 8.6469545 0.89761561
-6.9947338 8.6999779 0.9008444
-7.0108852 8.7764454 0.90649486
-7.9435134 7.8740225 0.3268882
-7.8974977 7.8777709 0.32600871
-7.8642731 7.8968377 0.32571551
-7.8197007 7.8988366 0.32483602
-7.7864518 7.9176011 0.32454282
-7.7405686 7.9205894 0.32366332
-7.7156482 7.9448667 0.32366332
-7.6837049 7.9618788 0.32337013
-7.6586547 7.9859776 0.32337013
-7.6335273 8.0099993 0.32337013
-7.6014495 8.0266857 0.32307696
-7.5761943 8.0505285 0.32307696
-7.5440359 8.0669918 0.3227838
-7.5254622 8.0979719 0.32307696
-7.4917855 8.1155405 0.3227838
-7.4932947 8.1684875 0.32395649
-7.4743338 8.1993704 0.32424966
-7.4485364 8.2228117 0.32424966
-7.4494324 8.2758741 0.32542235
-7.4433985 8.321579 0.32630187
-7.4305081 8.3598557 0.3268882
-7.4240689 8.4056253 0.32776773
-7.424015 8.4589434 0.32894042
-7.423697 8.5123463 0.33011311
-7.941833 7.8645334 0.25856826
-7.9029226 7.8753328 0.25810403
-7.8640203 7.8859668 0.25763983
-7.8321705 7.903533 0.25740772
-7.7862549 7.9067316 0.25671139
-7.7613754 7.9311552 0.25671139
-7.7224803 7.9411664 0.25624719
-7.6974931 7.9653893 0.25624719
-7.6724324 7.989531 0.25624719
-7.6472936 8.0135965 0.25624719
-7.6152005 8.0303278 0.25601506
-7.5899339 8.0542126 0.25601506
-7.5645947 8.0780163 0.25601506
-7.537765 8.1030579 0.25601506
-7.5190578 8.1340389 0.25624719
-7.5002327 8.1649818 0.25647929
-7.4812841 8.1958866 0.25671139
-7.4756546 8.24156 0.25740772
-7.4712563 8.2859745 0.25810403
-7.4770947 8.3479347 0.25926459
-7.4774222 8.4012508 0.26019302
-7.4841146 8.4621363 0.26135352
-7.4970999 8.5306559 0.26274619
-8.0330238 7.8449273 0.19724514
-7.955142 7.8671188 0.19654007
-7.9162169 7.8779631 0.19618754
-7.8843632 7.8957186 0.19601126
-7.8383961 7.8991532 0.19548246
-7.8065209 7.9166198 0.19530618
-7.7676187 7.9268198 0.19495364
-7.7357025 7.9440203 0.19477738
-7.7107086 7.9682827 0.19477738
-7.6856365 7.9924684 0.19477738
-7.6604905 8.016573 0.19477738
-7.6283832 8.033349 0.19460112
-7.6031089 8.0572739 0.19460112
-7.5695109 8.0751467 0.19442484
-7.544106 8.0988855 0.19442484
-7.5322061 8.1372252 0.19477738
-7.5201411 8.1755657 0.19512992
-7.5079083 8.2139149 0.19548246
-7.5089526 8.2670689 0.19618754
-7.4963384 8.3054647 0.19654007
-7.4835601 8.3438625 0.19689262
-7.4839139 8.397193 0.19759768
-7.5171475 8.4880371 0.19918412
-7.9795341 7.8859825 0.13268378
-7.9334617 7.8898478 0.13232775
-7.8945065 7.9005804 0.1320904
-7.8555636 7.9111438 0.13185303
-7.8250351 7.9272966 0.13173436
-7.7874789 7.9362001 0.131497
-7.7388048 7.9418402 0.13114096
-7.7068648 7.9589252 0.13102229
-7.6818223 7.9830985 0.13102229
-7.6497984 7.9999609 0.1309036
-7.6177425 8.0167027 0.13078491
-7.5993824 8.0478678 0.1309036
-7.5672221 8.0644083 0.13078491
-7.5418506 8.0881405 0.13078491
-7.5299883 8.1264706 0.13102229
-7.5111918 8.1574459 0.13114096
-7.5057654 8.203145 0.131497
-7.5001278 8.248888 0.13185303
-7.494277 8.2946768 0.13220908
-7.4948864 8.3479557 0.13268378
-7.5070734 8.4175596 0.13339587
-7.5203633 8.486022 0.13410796
-8.1547318 8.0522509 -0.46069917
-8.044302 7.9933562 -0.45586243
-7.968276 7.9705486 -0.45304102
-7.9023108 7.9516525 -0.45062265
-7.870266 7.9693351 -0.4502196
-7.8367944 7.9882607 -0.44981652
-7.8116608 8.0128403 -0.44981652
-7.786448 8.037343 -0.44981652
-7.7611604 8.0617638 -0.44981652
-7.7150621 8.0644579 -0.44860736
-7.6896901 8.0886555 -0.44860736
-7.6642399 8.1127739 -0.44860736
-7.6455579 8.1440916 -0.4490104
-7.6131148 8.1607695 -0.44860736
-7.6063981 8.2079449 -0.44981652
-7.5873461 8.2391481 -0.4502196
-7.5816727 8.2850466 -0.45142877
-7.6026874 8.360549 -0.45425019
-7.6367102 8.4510832 -0.45787776
-7.6702361 8.5419159 -0.46150532
-7.7180882 8.6465969 -0.46593899
-8.1537962 8.0209131 -0.52952838
-8.0362549 7.9551454 -0.52349514
-7.9673676 7.9394517 -0.52071059
-7.9141655 7.9361553 -0.5188542
-7.8751302 7.9467902 -0.5179261
-7.8501272 7.9714904 -0.5179261
-7.8180561 7.9889755 -0.51746196
-7.7929206 8.0134964 -0.51746196
-7.7677059 8.03794 -0.51746196
-7.7424164 8.0623026 -0.51746196
-7.7101512 8.0793619 -0.51699787
-7.6778574 8.0962963 -0.51653379
-7.659235 8.1276464 -0.51699787
-7.6268358 8.1443777 -0.51653379
-7.6216292 8.1902332 -0.5179261
-7.6147733 8.2374649 -0.51931834
-7.602376 8.2760572 -0.52024651
-7.6234875 8.3515368 -0.52349514
-7.6643395 8.4494219 -0.52813607
-7.68607 8.5240479 -0.53138471
-7.7110882 8.6090069 -0.53509742
-8.0264072 7.9320059 -0.58930284
-7.9518881 7.9078836 -0.58563936
-7.8987761 7.9045649 -0.58354586
-7.8598328 7.9151678 -0.58249921
-7.8279152 7.9327106 -0.58197582
-7.8029542 7.9572644 -0.58197582
-7.7709498 7.9745846 -0.58145243
-7.7597518 8.0133076 -0.58249921
-7.7345376 8.0376472 -0.58249921
-7.6954479 8.0474682 -0.58145243
-7.6701274 8.0716057 -0.58145243
-7.651588 8.1029224 -0.58197582
-7.6383371 8.1428204 -0.58302253
-7.6263332 8.1813898 -0.58406925
-7.6141639 8.2199621 -0.58511597
-7.5950637 8.2511911 -0.58563936
-7.6230168 8.3339682 -0.58982623
-7.657238 8.4243946 -0.59453642
-7.6775827 8.5002909 -0.59819996
-8.1855583 7.9759045 -1.0765978
-8.1249008 7.9667473 -1.0718924
-8.0643845 7.9572873 -1.0671871
-8.0110731 7.9545383 -1.0634228
-7.9508157 7.9444981 -1.0587174
-7.9117694 7.9553261 -1.0568352
-7.8713446 7.9673619 -1.054953
-7.8406911 7.9835815 -1.0540119
-7.8155723 8.008173 -1.0540119
-7.7889729 8.0340471 -1.0540119
-7.770607 8.0656424 -1.054953
-7.7383404 8.0828276 -1.0540119
-7.7129102 8.1070976 -1.0540119
-7.6942449 8.1385202 -1.054953
-7.6822801 8.1771564 -1.0568352
-7.6837411 8.2303476 -1.0605994
-7.6713972 8.2690363 -1.0624816
-7.6723862 8.3223629 -1.066246
-7.6716542 8.3771152 -1.0700103
-7.6721168 8.4306135 -1.0737746
-7.6723156 8.4842005 -1.077539
-7.6789141 8.54527 -1.0822444
-7.6652975 8.584199 -1.0841265
-8.1721172 8.0064316 -0.65937054
-7.9728889 7.909894 -0.64724553
-7.9126921 7.8996172 -0.64435863
-7.880795 7.9173589 -0.64378119
-7.8502507 7.9336061 -0.64320379
-7.8169041 7.9524727 -0.64262646
-7.7849102 7.9698448 -0.64204907
-7.7667832 8.0014305 -0.64262646
-7.7416086 8.0257902 -0.64262646
-7.7232599 8.0572824 -0.64320379
-7.6979103 8.0815048 -0.64320379
-7.6656232 8.0983973 -0.64262646
-7.6469808 8.1297131 -0.64320379
-7.6350293 8.1682911 -0.64435863
-7.6161222 8.1995535 -0.64493603
-7.6038589 8.2381191 -0.64609075
-7.6184101 8.3061285 -0.64955503
-7.639329 8.3816919 -0.6535967
-7.6665444 8.4648733 -0.65821576
-7.6732893 8.5260344 -0.66110271
-8.1528997 8.0056696 -0.72836512
-8.0921974 7.9961901 -0.72517329
-7.9891582 7.9442067 -0.71815139
-7.96277 7.9706564 -0.71815139
-7.9039073 7.958859 -0.71495962
-7.8844833 7.9921269 -0.71559799
-7.8523474 8.0097332 -0.71495962
-7.8201766 8.0272188 -0.71432126
-7.7949209 8.0517464 -0.71432126
-7.7765088 8.0833845 -0.71495962
-7.7510767 8.1077738 -0.71495962
-7.718689 8.1248541 -0.71432126
-7.7136893 8.1708212 -0.71623629
-7.6948128 8.2022905 -0.71687466
-7.6826253 8.2410154 -0.71815139
-7.6620383 8.2737656 -0.7187897
-7.6630526 8.327158 -0.72134322
-7.6840229 8.4027185 -0.72581166
-7.6978765 8.4711123 -0.7296418
-7.7113781 8.5396738 -0.73347193
-7.717854 8.6009808 -0.73666376
-8.0298109 7.9901557 -0.19703767
-7.9537969 7.9672322 -0.195816
-7.9089837 7.9695163 -0.19529243
-7.8825121 7.9956999 -0.19529243
-7.8433542 8.0061464 -0.19494338
-7.8042059 8.0164261 -0.19459432
-7.7789841 8.0409031 -0.19459432
-7.7536836 8.0653028 -0.19459432
-7.714488 8.0751696 -0.19424528
-7.6890802 8.0993662 -0.19424528
-7.6498685 8.108942 -0.19389623
-7.6243544 8.1329355 -0.19389623
-7.6124058 8.1714725 -0.19424528
-7.5920601 8.2040062 -0.1944198
-7.5865655 8.2498856 -0.19494338
-7.5808544 8.2958117 -0.19546695
-7.5816569 8.3491802 -0.19616504
-7.609004 8.4323168 -0.19756123
-7.6626201 8.5454683 -0.19965552
-8.2281485 8.0069294 -0.81408668
-7.9809265 7.9169745 -0.79705262
-7.9348326 7.9208722 -0.79492337
-7.9028716 7.9386921 -0.79421359
-7.8708749 7.9563913 -0.79350382
-7.8458414 7.9810781 -0.79350382
-7.8207283 8.0056877 -0.79350382
-7.7885919 8.0230618 -0.79279417
-7.7702732 8.0546684 -0.79350382
-7.7449312 8.0790386 -0.79350382
-7.733274 8.117774 -0.79492337
-7.7077341 8.1420279 -0.79492337
-7.688952 8.1734676 -0.79563314
-7.6836762 8.2194386 -0.79776239
-7.676743 8.266798 -0.79989165
-7.6845646 8.3275204 -0.80344039
-7.6988201 8.3957262 -0.80769897
-7.699286 8.449358 -0.81053799
-7.7128801 8.5178614 -0.81479645
-7.7276206 8.5851851 -0.81905502
-8.0258913 7.9643469 -0.261583
-7.9513054 7.9400797 -0.25995827
-7.9051614 7.9437661 -0.25926197
-7.8801675 7.9685607 -0.25926197
-7.8480849 7.9861488 -0.25902984
-7.8089857 7.9964609 -0.25856563
-7.7907882 8.0281286 -0.25879773
-7.7585883 8.0453682 -0.25856563
-7.7401924 8.0769205 -0.25879773
-7.6940942 8.0794811 -0.25810143
-7.6617999 8.0963535 -0.2578693
-7.6431775 8.1276646 -0.25810143
-7.6176071 8.1516352 -0.25810143
-7.5973363 8.1841774 -0.25833353
-7.5987053 8.2373943 -0.25926197
-7.5863032 8.2759619 -0.25972617
-7.5939326 8.3367033 -0.2608867
-7.6213875 8.4198036 -0.26274353
-7.6632543 8.5166864 -0.2650646
-8.1948566 7.9916887 -0.873685
-8.1127853 7.9615164 -0.86757535
-8.0451746 7.9449201 -0.86299312
-7.970675 7.9209499 -0.85764712
-7.9066954 7.9567275 -0.85611969
-7.867651 7.9673347 -0.85459226
-7.8355985 7.9848952 -0.85382855
-7.8174357 8.0166111 -0.85459226
-7.7922111 8.041132 -0.85459226
-7.7669115 8.0655708 -0.85459226
-7.7415333 8.0899324 -0.85459226
-7.7160811 8.114212 -0.85459226
-7.6973977 8.1456623 -0.85535598
-7.6922426 8.1916122 -0.85764712
-7.6718359 8.2243681 -0.85841084
-7.6798472 8.284996 -0.86222941
-7.6807966 8.3384218 -0.8652842
-7.6882191 8.3992891 -0.86910278
-7.7020402 8.4676647 -0.873685
-7.7021399 8.5214109 -0.87673986
-7.7086372 8.5826616 -0.88055843
-8.132268 8.039362 -0.3262651
-7.9865184 7.9450068 -0.32139975
-7.9332671 7.9417644 -0.32025495
-7.8871546 7.945364 -0.31939638
-7.8551369 7.9629841 -0.31911016
-7.8230839 7.980484 -0.31882396
-7.7910018 7.99786 -0.3185378
-7.7658362 8.0222979 -0.3185378
-7.7336674 8.0394487 -0.31825158
-7.6945591 8.0492525 -0.31767917
-7.6623521 8.0661373 -0.317393
-7.6301122 8.0829 -0.31710678
-7.6183572 8.1214123 -0.31767917
-7.5845704 8.1393185 -0.317393
-7.5793324 8.185113 -0.31825158
-7.5535817 8.2088823 -0.31825158
-7.5682187 8.2768412 -0.31996876
-7.5623431 8.322773 -0.32082736
-7.6031365 8.4206905 -0.32368931
-7.6500611 8.5263901 -0.32683751
-8.0909262 7.9628401 -0.92210537
-8.0163231 7.9391003 -0.91641843
-7.9560609 7.9290485 -0.91235626
-7.9170432 7.9398832 -0.91073143
-7.8864369 7.9562559 -0.90991896
-7.8558035 7.9725175 -0.90910655
-7.8279271 7.9998903 -0.90910655
-7.8027549 8.0244436 -0.90910655
-7.7844305 8.0560875 -0.90991896
-7.752182 8.0733118 -0.90910655
-7.7336593 8.1048393 -0.90991896
-7.7081575 8.129096 -0.90991896
-7.6962457 8.1677847 -0.91154379
-7.6841645 8.2064819 -0.91316867
-7.6787043 8.2524805 -0.91560596
-7.6797915 8.30585 -0.91885567
-7.6873608 8.3666477 -0.92291784
-7.6946216 8.4275761 -0.92697996
-7.7015777 8.4886303 -0.93104213
-7.7015524 8.542408 -0.93429184
-7.7145615 8.6111193 -0.93916637
-8.1059275 8.0054398 -0.39645827
-7.9815431 7.9321918 -0.39157233
-7.9212704 7.9218745 -0.38982737
-7.8822608 7.9325361 -0.38912937
-7.8376312 7.9345479 -0.38808239
-7.8000574 7.9434986 -0.38738438
-7.7722821 7.9706774 -0.38738438
-7.7402534 7.987874 -0.38703543
-7.7151198 8.0121527 -0.38703543
-7.6899118 8.0363493 -0.38703543
-7.6508594 8.0459776 -0.38633743
-7.6186848 8.062705 -0.38598841
-7.5933166 8.0866013 -0.38598841
-7.5746899 8.1177263 -0.38633743
-7.5695233 8.1634789 -0.38738438
-7.5573783 8.2019234 -0.38808239
-7.5585542 8.2551231 -0.38947839
-7.5661945 8.3158045 -0.39122337
-7.5869231 8.391449 -0.39366633
-7.6272802 8.4896154 -0.39715627
