# .PCD v0.7 - Point Cloud Data file format
VERSION 0.7
FIELDS x y z
SIZE 4 4 4
TYPE F F F
COUNT 1 1 1
WIDTH 152
HEIGHT 1
VIEWPOINT 0 0 0 1 0 0 0
POINTS 152
DATA ascii
-19.117968 13.937736 0.13604069
-19.448742 14.466659 0.13938121
-18.758415 14.137323 0.13506156
-19.192011 14.558686 0.13851729
-18.489531 14.209927 0.13408244
-18.397331 14.231246 0.13373686
-19.082674 13.953408 0.0041189771
-19.124454 14.450349 0.0041765729
-18.517122 14.175155 0.0040631262
-18.424967 14.196644 0.0040526544
-18.531481 14.059131 0.92860997
-18.473803 14.101922 0.92781079
-18.319136 14.172002 0.92461419
-18.308361 14.348478 0.92860997
-19.077318 13.960298 -0.11120745
-19.041414 14.026095 -0.11125456
-19.380152 14.459107 -0.11375201
-18.878874 14.177608 -0.11106607
-19.071028 14.421096 -0.11247972
-18.4354 14.215455 -0.10951106
-19.039341 14.009831 -0.24301384
-18.840017 14.143906 -0.24219005
-19.037294 14.380611 -0.24527922
-18.439056 14.208587 -0.23930685
-19.109444 13.642447 0.68749136
-18.313013 14.242764 0.67928255
-19.239344 13.725637 0.54777479
-19.21237 13.79767 0.54823893
-19.036377 13.853413 0.54568583
-19.048149 14.324953 0.55241692
-18.716078 14.167524 0.54406101
-18.428865 14.230452 0.53965098
-19.205242 13.777946 0.41599515
-19.070299 13.777143 0.41405615
-19.059269 13.860508 0.41476122
-19.065495 14.32305 0.41969678
-19.052151 14.506444 0.42145947
-18.847771 14.444578 0.41793409
-18.35107 14.155595 0.40788674
-19.089495 13.872774 0.27960914
-18.665115 14.109484 0.27723554
-19.02647 14.47694 0.28328821
-18.362564 14.159733 0.27474329
-18.808514 14.288576 -0.95122498
-18.464935 14.211514 -0.93832695
-18.960957 14.259322 -1.1003609
-18.852348 14.27059 -1.0966481
-18.704121 14.251055 -1.0906149
-21.271566 11.427629 -1.2633899
-21.165306 11.456363 -1.2592031
-21.085375 11.498893 -1.2565863
-21.092907 11.589122 -1.2592031
-20.960287 11.602126 -1.2534461
-20.976067 11.697102 -1.2565863
-21.01757 11.80697 -1.2612965
-20.945612 11.853261 -1.2592031
-20.925619 11.928901 -1.2602499
-20.870722 11.984632 -1.2592031
-20.8589 12.065145 -1.2607732
-20.83815 12.140668 -1.2618198
-20.739618 12.170691 -1.2581563
-20.649702 12.205293 -1.2550162
-20.568354 12.244564 -1.2523994
-20.589737 12.345069 -1.256063
-20.482464 12.368394 -1.2518761
-20.358189 12.380781 -1.2466425
-20.310675 12.439464 -1.2461191
-20.192831 12.459542 -1.2414088
-20.155771 12.519405 -1.2414088
-20.116343 12.582663 -1.2414088
-20.040712 12.628005 -1.2393155
-19.941919 12.653442 -1.2356519
-19.750601 12.61924 -1.2262315
-19.769646 12.71905 -1.229895
-19.73797 12.786529 -1.2304183
-19.655884 12.821188 -1.2278014
-19.515348 12.817086 -1.2215213
-19.56661 12.938928 -1.2272781
-19.542486 13.011407 -1.2283249
-19.410275 13.011561 -1.2225679
-19.45207 13.128351 -1.2278014
-19.352917 13.150103 -1.224138
-19.327991 13.222117 -1.2251847
-19.360376 13.333755 -1.229895
-19.326595 13.400205 -1.2304183
-19.333532 13.495151 -1.2335584
-19.282869 13.550082 -1.2330351
-19.256512 13.622128 -1.2340819
-19.124146 13.618832 -1.2283249
-19.15431 13.731213 -1.2330351
-19.100573 13.78881 -1.2325118
-19.073318 13.860488 -1.2335584
-19.013559 13.908549 -1.2325118
-18.905443 13.920836 -1.2283249
-18.848009 13.964976 -1.2272781
-18.828058 14.042036 -1.2288482
-18.783852 14.101114 -1.2288482
-18.625463 14.079014 -1.2215213
-18.573193 14.131413 -1.2209978
-18.528708 14.18969 -1.2209978
-18.278406 14.089304 -1.2073905
-18.210384 14.128288 -1.2058203
-18.210649 14.22549 -1.2089607
-18.118771 14.245589 -1.2058203
-18.11558 14.330272 -1.2084372
-18.054848 14.374668 -1.2073905
-17.95505 14.387605 -1.203727
-17.930557 14.465875 -1.205297
-17.753237 14.415114 -1.1963999
-17.692402 14.458176 -1.1953533
-17.592903 14.46928 -1.1916896
-17.493515 14.479898 -1.1880262
-17.386559 14.483648 -1.1838393
-17.310366 14.512531 -1.1817459
-17.206165 14.512315 -1.177559
-17.112274 14.530507 -1.1744188
-17.058949 14.57771 -1.1738955
-17.03578 14.650764 -1.1754656
-16.899063 14.625784 -1.1691853
-16.875622 14.698477 -1.1707553
-16.919472 14.830421 -1.1770357
-16.760471 14.7844 -1.1691853
-16.527246 14.671229 -1.1561012
-16.689589 14.909377 -1.1707553
-16.642664 14.961738 -1.1707553
-16.543747 14.967044 -1.1670917
-16.555714 15.072734 -1.1712787
-16.55982 15.171895 -1.1749421
-16.534101 15.244152 -1.1765122
-16.493446 15.302815 -1.1770357
-16.43531 15.350609 -1.1765122
-16.37973 15.395324 -1.1759889
-16.3603 15.47416 -1.1780823
-16.36224 15.573677 -1.1817459
-16.334864 15.64573 -1.1833159
-16.302752 15.707986 -1.1843626
-16.260494 15.766075 -1.184886
-16.200977 15.812935 -1.1843626
-19.005339 14.085546 -0.41222581
-19.052404 14.306714 -0.41519272
-18.943541 14.318285 -0.41379654
-18.514694 14.270413 -0.40733916
-18.962484 14.105663 -0.54776925
-19.094143 14.29698 -0.55287552
-18.587969 14.286032 -0.54335922
-18.939865 14.130491 -0.67542607
-18.983294 14.255959 -0.67857414
-18.858679 14.255241 -0.67571217
-18.96792 14.234715 -0.82676905
-18.883242 14.264108 -0.82502407
-18.552715 14.203442 -0.81455427
-18.53966 14.286066 -0.81595021
