# .PCD v0.7 - Point Cloud Data file format
VERSION 0.7
FIELDS x y z
SIZE 4 4 4
TYPE F F F
COUNT 1 1 1
WIDTH 201
HEIGHT 1
VIEWPOINT 0 0 0 1 0 0 0
POINTS 201
DATA ascii
-1.797958 -0.54615211 -0.85855687
-1.8083358 -0.54313344 -0.86278623
-1.7926751 -0.53223902 -0.8543275
-1.8290868 -0.53691703 -0.87124491
-1.804679 -0.5235157 -0.85855687
-1.8324243 -0.52541399 -0.87124491
-1.8166437 -0.5146625 -0.86278623
-1.8269706 -0.51142138 -0.86701554
-1.8285681 -0.50567949 -0.86701554
-1.8214136 -0.49751818 -0.86278623
-1.840451 -0.49656689 -0.87124491
-1.8332528 -0.4884232 -0.86701554
-1.8260217 -0.48033014 -0.86278623
-1.8362855 -0.47689494 -0.86701554
-1.8202326 -0.46657097 -0.85855687
-1.8392457 -0.46534786 -0.86701554
-1.8582686 -0.46401033 -0.87547421
-1.8245491 -0.44939494 -0.85855687
-1.8347508 -0.44582707 -0.86278623
-1.8097254 -0.43364525 -0.85009819
-1.8287034 -0.43217948 -0.85855687
-1.8388711 -0.42851514 -0.86278623
-1.8225573 -0.41862556 -0.8543275
-1.8415272 -0.41695276 -0.86278623
-1.8339899 -0.40916577 -0.85855687
-1.8264217 -0.40143022 -0.8543275
-1.8542255 -0.40152305 -0.86701554
-1.828908 -0.38994661 -0.8543275
-1.830124 -0.38419878 -0.8543275
-1.831322 -0.37844762 -0.8543275
-1.8325019 -0.37269223 -0.8543275
-1.8337277 -0.36661333 -0.8543275
-1.8259218 -0.35939386 -0.85009819
-1.8181506 -0.35190681 -0.84586883
-1.8281438 -0.34791422 -0.85009819
-1.8292278 -0.34216946 -0.85009819
-1.8035719 -0.3314248 -0.83741009
-1.8224292 -0.32903203 -0.84586883
-1.8323714 -0.32491419 -0.85009819
-1.8333831 -0.31915626 -0.85009819
-1.8254492 -0.3118414 -0.84586883
-1.8085551 -0.30305484 -0.83741009
-1.8273726 -0.30036569 -0.84586883
-1.8283072 -0.29462358 -0.84586883
-1.8560627 -0.293201 -0.85855687
-1.8211714 -0.28171736 -0.84163952
-1.8310027 -0.2773791 -0.84586883
-1.8318651 -0.2716257 -0.84586883
-1.8514712 -0.26271099 -0.8543275
-1.8433155 -0.25562125 -0.85009819
-1.8171819 -0.2460971 -0.83741009
-1.8179461 -0.24038728 -0.83741009
-1.8097088 -0.23348713 -0.83318079
-1.8463821 -0.23243786 -0.85009819
-1.8650846 -0.22889793 -0.85855687
-1.8568003 -0.22193494 -0.8543275
-1.8214977 -0.21180229 -0.83741009
-1.822154 -0.20607908 -0.83741009
-1.8498054 -0.2034072 -0.85009819
-1.8684499 -0.19957441 -0.85855687
-1.8330259 -0.18985787 -0.84163952
-1.8606536 -0.18689767 -0.8543275
-1.81615 -0.1765275 -0.83318079
-1.843753 -0.17345044 -0.84586883
-1.8442888 -0.16765702 -0.84586883
-1.8448064 -0.16186242 -0.84586883
-1.8362788 -0.15527441 -0.84163952
-1.8367575 -0.14950505 -0.84163952
-1.8372182 -0.14373371 -0.84163952
-1.8466947 -0.1386677 -0.84586883
-1.8200125 -0.13083164 -0.83318079
-1.8384912 -0.12641244 -0.84163952
-1.8479196 -0.12125683 -0.84586883
-1.8302069 -0.11426575 -0.83741009
-1.848645 -0.10964415 -0.84586883
-1.858026 -0.10437152 -0.85009819
-1.8492974 -0.098026671 -0.84586883
-1.8495963 -0.092216209 -0.84586883
-1.8679776 -0.087306425 -0.8543275
-1.8501391 -0.080593094 -0.84586883
-1.8322769 -0.073993184 -0.83741009
-1.8234462 -0.067871071 -0.83318079
-1.8327057 -0.062479246 -0.83741009
-1.832893 -0.05672108 -0.83741009
-1.8421195 -0.051242732 -0.84163952
-1.8242873 -0.039221443 -0.83318079
-1.8244015 -0.033489842 -0.83318079
-1.842618 -0.028090501 -0.84163952
-1.8245759 -0.022026183 -0.83318079
-1.824639 -0.015975472 -0.83318079
-1.8337395 -0.010642312 -0.83741009
-1.8609483 -0.0050382148 -0.85009819
-1.8247087 0.00090328895 -0.83318079
-1.8609433 0.0066545107 -0.85009819
-1.8518517 0.012467839 -0.84586883
-1.8336805 0.018161934 -0.83741009
-1.8064309 0.023652323 -0.82472211
-1.842591 0.029801488 -0.84163952
-1.8334279 0.035442699 -0.83741009
-1.8333075 0.041202642 -0.83741009
-1.8241097 0.046757709 -0.83318079
-1.8601884 0.053418171 -0.85009819
-1.8147221 0.057957031 -0.82895142
-1.805474 0.063368723 -0.82472211
-1.8324342 0.069993705 -0.83741009
-1.8231502 0.075404093 -0.83318079
-1.7957428 0.080006912 -0.82049274
-1.8588511 0.088470392 -0.85009819
-1.8495126 0.093877859 -0.84586883
-1.8492086 0.099688061 -0.84586883
-1.8398379 0.10500832 -0.84163952
-1.8214051 0.10975429 -0.83318079
-1.848187 0.11711153 -0.84586883
-1.8568317 0.12381507 -0.85009819
-1.8293314 0.12751742 -0.83741009
-1.8470011 0.13452511 -0.84586883
-1.8375318 0.13966779 -0.84163952
-1.8370839 0.14544013 -0.84163952
-1.8456513 0.15192623 -0.84586883
-1.8541682 0.15879151 -0.85009819
-1.8536601 0.16461554 -0.85009819
-1.8441079 0.16963604 -0.84586883
-1.8435658 0.17542839 -0.84586883
-1.8249639 0.17950135 -0.83741009
-1.8244233 0.18491527 -0.83741009
-1.8328153 0.19188008 -0.84163952
-1.832238 0.19731724 -0.84163952
-1.8406185 0.20404297 -0.84586883
-1.8399683 0.20982467 -0.84586883
-1.8212564 0.21386725 -0.83741009
-1.8115758 0.21853037 -0.83318079
-1.8198767 0.22530626 -0.83741009
-1.8371458 0.23324972 -0.84586883
-1.8184251 0.23673637 -0.83741009
-1.8087288 0.24096198 -0.83318079
-1.8169451 0.24783973 -0.83741009
-1.8071791 0.25232175 -0.83318079
-1.8512039 0.26458761 -0.8543275
-1.7965417 0.26270345 -0.82895142
-1.8136399 0.27096885 -0.83741009
-1.830704 0.27934378 -0.84586883
-1.8387752 0.28646103 -0.85009819
-1.7930987 0.28525817 -0.82895142
-1.8100919 0.29373729 -0.83741009
-1.8092122 0.29910707 -0.83741009
-1.8082105 0.30510458 -0.83741009
-1.7983078 0.3092759 -0.83318079
-1.8598405 0.32567665 -0.86278623
-1.8052546 0.32213303 -0.83741009
-1.8399163 0.33417144 -0.8543275
-1.803195 0.33346936 -0.83741009
-1.8021384 0.33913237 -0.83741009
-1.8010641 0.34479254 -0.83741009
-1.8355718 0.35726556 -0.8543275
-1.8077568 0.35783425 -0.84163952
-1.7977346 0.36175138 -0.83741009
-1.8054729 0.3691856 -0.84163952
-1.8131819 0.37667149 -0.84586883
-1.8119895 0.38236615 -0.84586883
-1.793047 0.38431326 -0.83741009
-1.800691 0.39184412 -0.84163952
-1.826014 0.40328091 -0.8543275
-1.7804971 0.39924017 -0.83318079
-1.788076 0.40681446 -0.83741009
-1.7867892 0.41243011 -0.83741009
-1.8296314 0.4282333 -0.85855687
-1.8018085 0.42778048 -0.84586883
-1.8092721 0.43553299 -0.85009819
-1.8167046 0.44333616 -0.8543275
-1.7976967 0.44474313 -0.84586883
-1.8314757 0.45909572 -0.86278623
-1.8124455 0.46043849 -0.8543275
-1.8109902 0.46612996 -0.8543275
-1.8182921 0.47407693 -0.85855687
-1.7992575 0.47521228 -0.85009819
-1.8065165 0.48317745 -0.8543275
-1.7787288 0.48182338 -0.84163952
-1.803445 0.49451852 -0.8543275
-1.7931439 0.49778435 -0.85009819
-1.7741088 0.49856612 -0.84163952
-1.7987044 0.51149321 -0.8543275
-1.8057137 0.51993614 -0.85855687
-1.7867471 0.5202778 -0.85009819
-1.7938037 0.52842289 -0.8543275
-1.7834429 0.5314939 -0.85009819
-1.7816706 0.53740519 -0.85009819
-1.788744 0.54530513 -0.8543275
-1.7870219 0.55092221 -0.8543275
-1.7678679 0.55150068 -0.84586883
-1.7747768 0.55975133 -0.85009819
-1.790293 0.5707767 -0.85855687
-1.7712247 0.5708915 -0.85009819
-1.7694225 0.57645291 -0.85009819
-1.8020654 0.5932399 -0.86701554
-1.7743725 0.59039384 -0.8543275
-1.7897046 0.6016891 -0.86278623
-1.7878056 0.60730839 -0.86278623
-1.7773091 0.61000645 -0.85855687
-1.7839544 0.61852944 -0.86278623
-1.7563188 0.61522233 -0.85009819
-1.771481 0.62672967 -0.85855687
