# .PCD v0.7 - Point Cloud Data file format
VERSION 0.7
FIELDS x y z
SIZE 4 4 4
TYPE F F F
COUNT 1 1 1
WIDTH 199
HEIGHT 1
VIEWPOINT 0 0 0 1 0 0 0
POINTS 199
DATA ascii
-26.75643 21.650908 0.1980135
-26.758074 21.791674 0.19853184
-26.64307 21.837608 0.19818628
-26.501081 21.86857 0.19766793
-26.339926 21.875063 0.19697678
-26.19433 21.893591 0.19640082
-26.025927 21.892105 0.19565207
-25.895954 21.922085 0.19519131
-25.758442 21.944975 0.19467296
-25.590664 21.941193 0.1939242
-25.44589 21.956163 0.19334826
-25.171879 21.997189 0.19231154
-25.035053 22.016741 0.19179317
-24.883381 22.022392 0.19115962
-24.341631 22.102398 0.18914379
-24.168707 22.084345 0.18833745
-24.066257 22.122124 0.18804945
-23.904676 22.120325 0.18735832
-23.798471 22.161245 0.18707034
-23.655752 22.16754 0.1864944
-23.52051 22.18001 0.18597603
-23.39267 22.198738 0.18551525
-23.250486 22.203068 0.18493931
-23.122923 22.220581 0.18447854
-22.988297 22.23056 0.18396017
-26.733181 21.696928 0.0060021868
-26.579689 21.711226 0.0059829885
-26.457277 21.750168 0.005970771
-26.288645 21.750317 0.0059480816
-26.143339 21.76881 0.0059306286
-25.98284 21.773769 0.0059096846
-24.551239 21.930758 0.0057386425
-24.370663 21.907503 0.0057124626
-24.23497 21.923588 0.0056967544
-24.106815 21.945761 0.0056827916
-23.96401 21.953844 0.0056653386
-23.8214 21.961241 0.0056478856
-23.67897 21.967962 0.0056304317
-23.551363 21.987652 0.0056164693
-23.409281 21.993067 0.0055990159
-23.267408 21.997803 0.0055815629
-23.125729 22.001869 0.0055641094
-22.987642 22.016184 0.0055484013
-22.871807 22.035727 0.0055361842
-26.601307 21.747393 -0.161722
-26.424755 21.741898 -0.1610623
-24.357756 21.906366 -0.15418251
-24.236919 21.935802 -0.15385266
-24.093958 21.944502 -0.15338145
-23.943815 21.945755 -0.1528631
-23.801249 21.95307 -0.1523919
-23.666204 21.966503 -0.15196779
-23.520166 21.976585 -0.15149657
-23.385443 21.988718 -0.15107247
-23.258144 22.007088 -0.1506955
-23.123714 22.017984 -0.15027142
-22.982233 22.02133 -0.1498002
-22.851999 22.026958 -0.14937609
-26.74007 21.700909 -0.35422355
-26.609819 21.734192 -0.35339978
-26.433281 21.728764 -0.35195819
-26.280144 21.741575 -0.35082549
-26.142563 21.766432 -0.34989873
-24.098969 21.936491 -0.33517376
-23.941469 21.931023 -0.33393809
-23.813646 21.951895 -0.3331143
-23.678593 21.965387 -0.33218753
-23.551008 21.985067 -0.3313638
-23.405113 21.994555 -0.33033404
-23.263256 21.999262 -0.32930434
-23.139931 22.013042 -0.32848057
-22.983999 22.002634 -0.32724491
-22.871559 22.033102 -0.32662708
-26.76622 21.774948 1.0108615
-26.70541 21.865263 1.0111547
-26.609613 21.934633 1.0102751
-26.432859 21.928785 1.0061707
-26.264072 21.928455 1.0023594
-26.126171 21.952991 0.99972087
-25.957836 21.951075 0.99590957
-25.835457 21.987171 0.99385738
-25.659952 21.977219 0.98975301
-25.530207 22.005522 0.98740768
-25.23328 22.027479 0.98125094
-25.096365 22.047279 0.97861248
-24.959566 22.066441 0.9759739
-24.815432 22.078312 0.97304213
-24.660164 22.087137 0.96981716
-24.516392 22.097593 0.96688551
-24.365398 22.100645 0.9636606
-24.229389 22.116447 0.96102202
-24.078804 22.118086 0.95779711
-23.932306 22.114822 0.95457214
-23.829561 22.166838 0.95339954
-23.686815 22.173296 0.95046777
-23.536993 22.172216 0.94724286
-23.40192 22.184174 0.94460428
-23.267012 22.195499 0.94196582
-23.146677 22.220039 0.93991351
-26.930664 21.756048 0.80286139
-26.753578 21.75226 0.79961193
-26.708324 21.85519 0.80030823
-26.570072 21.881798 0.7982192
-26.408831 21.888607 0.79543394
-26.28619 21.926645 0.79380924
-26.117634 21.925556 0.79079181
-25.987524 21.955889 0.78893489
-25.819407 21.953241 0.78591752
-25.651554 21.949757 0.78290009
-25.292854 22.059122 0.77825791
-25.148285 22.072535 0.7759369
-24.996395 22.07863 0.77338368
-24.848326 22.094973 0.77106255
-24.696835 22.099606 0.76850945
-24.56785 22.123564 0.76665252
-24.424147 22.133507 0.76433152
-24.273228 22.136034 0.7617783
-24.063614 22.083754 0.75736827
-23.935354 22.104986 0.75551134
-23.814531 22.132431 0.75388664
-23.67186 22.138859 0.75156558
-23.536671 22.151451 0.74947661
-23.401628 22.163422 0.74738765
-23.273987 22.181652 0.74553072
-23.120943 22.182581 0.7429775
-26.747192 21.734657 0.60689461
-26.756174 21.881874 0.60865724
-26.594664 21.889576 0.60654205
-26.425673 21.890091 0.60425055
-26.310692 21.934587 0.60319287
-26.13825 21.922598 0.60072511
-25.989037 21.929123 0.59878618
-25.828529 21.948484 0.59684724
-25.675869 21.958029 0.5949083
-25.538555 21.979883 0.59332186
-25.30197 22.054501 0.59103036
-25.164915 22.074533 0.58944392
-25.020487 22.087313 0.58768123
-24.868757 22.092754 0.58574229
-24.724691 22.104136 0.58397961
-24.580801 22.114819 0.58221692
-24.444496 22.131538 0.58063048
-24.308336 22.147612 0.57904404
-24.091249 22.088722 0.57551867
-23.955606 22.103271 0.57393223
-23.827435 22.123997 0.5725221
-23.695503 22.148266 0.57111192
-23.545702 22.14724 0.56917304
-23.425182 22.172979 0.56793904
-23.283012 22.177504 0.56617641
-23.14492 22.177309 0.56441373
-23.010355 22.187449 0.56282729
-26.732073 21.709793 0.40825781
-26.717922 21.837975 0.40908855
-26.610582 21.890034 0.40849519
-26.456964 21.903372 0.4071897
-26.295851 21.909554 0.40576556
-26.142616 21.921373 0.40446007
-25.989573 21.93244 0.40315458
-25.851957 21.955719 0.40208653
-25.676453 21.945848 0.40042496
-25.53916 21.967712 0.39935684
-25.298786 22.046759 0.39781404
-25.165409 22.077766 0.39686459
-25.024836 22.086159 0.3956778
-24.888052 22.104891 0.39460969
-24.747801 22.112 0.39342287
-24.596434 22.116087 0.39211741
-24.460115 22.132854 0.3910493
-24.305281 22.139763 0.38974383
-24.132427 22.121403 0.38808233
-23.945236 22.088606 0.38618344
-23.846411 22.136509 0.38570872
-23.703693 22.14304 0.3845219
-23.564583 22.159861 0.38345379
-23.418365 22.16913 0.382267
-23.291193 22.17238 0.38119888
-23.156448 22.183172 0.38013077
-23.02906 22.200285 0.37918133
-26.68527 21.794439 -0.60071182
-26.543335 21.82567 -0.59914106
-26.374485 21.826105 -0.59687233
-24.364241 21.906677 -0.57121724
-24.265635 21.956285 -0.57051915
-24.115204 21.958372 -0.56859934
-23.979742 21.973246 -0.56702864
-23.877678 22.01042 -0.56615603
-23.753246 22.041883 -0.56493437
-23.618105 22.054989 -0.56336367
-23.483112 22.067471 -0.56179291
-23.341015 22.072449 -0.56004775
-23.213598 22.090538 -0.55865151
-23.079086 22.101128 -0.55708081
-22.944735 22.11109 -0.5555101
-22.810543 22.120434 -0.5539394
-23.495501 22.020048 -0.74668366
-23.389837 22.059462 -0.74552315
-23.247906 22.064014 -0.74320215
-22.801771 22.052794 -0.7355426
