# .PCD v0.7 - Point Cloud Data file format
VERSION 0.7
FIELDS x y z
SIZE 4 4 4
TYPE F F F
COUNT 1 1 1
WIDTH 71
HEIGHT 1
VIEWPOINT 0 0 0 1 0 0 0
POINTS 71
DATA ascii
33.094215 6.8214359 0.0058904863
32.939075 6.681644 0.00585907
32.822613 6.5507259 0.0058346358
32.705658 6.4205885 0.0058102012
32.607841 6.2950597 0.0057892567
32.539032 6.1758051 0.0057735485
32.469803 6.057045 0.0057578408
32.419819 5.9423885 0.0057456233
32.389122 5.8316336 0.0057368968
32.328506 5.7159228 0.0057229348
32.267479 5.6006503 0.0057089715
32.255341 5.4942164 0.0057037361
32.242855 5.3878965 0.0056984993
32.239887 5.2833457 0.0056950096
32.246449 5.1804519 0.0056932638
32.213173 5.0713472 0.0056845373
32.228951 4.9701085 0.0056845373
32.244404 4.8688378 0.0056845373
32.230694 4.7575011 0.0056793015
32.294968 4.6633749 0.0056880279
32.308662 4.5675259 0.0056880279
32.323631 4.4603601 0.0056880279
32.377129 4.3641405 0.0056950096
32.390678 4.2624073 0.0056950096
32.462688 4.1739306 0.0057054809
32.525253 4.0781531 0.0057142074
32.557755 3.9783833 0.005717698
32.61974 3.8819964 0.0057264245
32.682106 3.7795498 0.0057351519
32.753441 3.6835704 0.0057456233
32.864262 3.5915108 0.0057630772
32.964878 3.4977527 0.0057787853
33.065231 3.4033976 0.005794493
33.205116 3.3124189 0.0058171819
33.364666 3.2225015 0.0058433623
33.514015 3.1307011 0.0058677965
33.742794 3.0451889 0.005906194
34.001251 2.9608743 0.0059498274
33.118988 6.4934797 -0.15884757
33.001755 6.3629088 -0.15818788
32.893852 6.2350001 -0.15757528
32.825867 6.1094217 -0.15715119
32.667839 5.9738836 -0.15630299
32.706131 5.8747644 -0.15639724
32.665337 5.7615719 -0.15611452
32.594597 5.6435771 -0.15569043
32.582584 5.5361304 -0.15554905
32.570229 5.4287982 -0.15540768
32.478561 5.3087153 -0.15488935
32.5247 5.2114034 -0.1550307
32.531033 5.1076522 -0.1549836
32.497505 4.9978175 -0.15474798
32.493267 4.8927264 -0.15465374
32.498581 4.7891684 -0.15460661
32.553059 4.6927567 -0.1547951
32.567642 4.5904522 -0.1547951
32.581902 4.4881196 -0.1547951
32.665215 4.3950734 -0.15512495
32.668945 4.2911334 -0.15507783
32.702835 4.1853123 -0.15517208
32.795204 4.0924411 -0.15554905
32.84761 3.9942224 -0.15573753
32.919579 3.8980656 -0.15602027
33.001202 3.80264 -0.15635012
33.092484 3.7078526 -0.15672709
33.193443 3.6135933 -0.15715119
33.363743 3.5261073 -0.15790513
33.464188 3.4304523 -0.15832923
33.663868 3.3440807 -0.15922455
33.933014 3.2631669 -0.16044971
34.092453 3.1704333 -0.16115655
