# .PCD v0.7 - Point Cloud Data file format
VERSION 0.7
FIELDS x y z
SIZE 4 4 4
TYPE F F F
COUNT 1 1 1
WIDTH 255
HEIGHT 1
VIEWPOINT 0 0 0 1 0 0 0
POINTS 255
DATA ascii
-5.2138085 -3.0130002 -1.0860742
-5.2574043 -3.0161583 -1.0932195
-5.3983717 -2.9864383 -1.1128689
-5.668231 -3.0877972 -1.1646718
-5.391645 -2.9167337 -1.1057236
-5.3921084 -2.8951337 -1.1039373
-5.4011769 -2.8781805 -1.1039373
-5.4972115 -2.9071176 -1.1218004
-5.4196506 -2.8432419 -1.1039373
-5.3143344 -2.7257552 -1.0771427
-5.3491912 -2.7224095 -1.0825016
-5.7619162 -2.9092367 -1.1646718
-5.7360086 -2.8511171 -1.1557401
-5.5507159 -2.7375133 -1.1164415
-5.5416045 -2.7114298 -1.1128689
-5.5500956 -2.6940062 -1.1128689
-5.5674 -2.6808181 -1.1146551
-5.5669131 -2.659081 -1.1128689
-5.5663433 -2.6373746 -1.1110826
-5.5835104 -2.6240506 -1.1128689
-5.6467333 -3.3156564 -0.73466581
-5.6346297 -3.2375772 -0.72905773
-5.6447735 -3.2198586 -0.72905773
-5.6894655 -3.2216644 -0.73354423
-5.7163305 -3.2144954 -0.73578751
-5.7524438 -3.2110274 -0.73915237
-5.9785843 -3.1907854 -0.76046324
-5.9457164 -3.1254618 -0.75373352
-5.920249 -3.0884149 -0.74924701
-5.9039702 -3.055088 -0.74588209
-5.9041662 -3.0330245 -0.74476051
-5.9136653 -3.014462 -0.74476051
-5.9053645 -2.9869134 -0.74251723
-5.9058332 -2.9638977 -0.74139559
-5.924015 -2.9497502 -0.74251723
-5.9332523 -2.9311256 -0.74251723
-5.6210718 -2.755316 -0.70213866
-5.6118193 -2.7289693 -0.69989538
-5.6114116 -2.707016 -0.6987738
-5.6198878 -2.6893747 -0.6987738
-5.6462712 -2.6802108 -0.70101702
-5.8885102 -2.772301 -0.73017931
-6.1133676 -2.8545001 -0.75709844
-6.2215295 -2.8811295 -0.7694363
-6.2390838 -2.8667989 -0.77055794
-6.2571054 -2.8512959 -0.77167952
-6.2569733 -2.8275411 -0.77055794
-6.2930398 -2.8200374 -0.7739228
-5.8043699 -3.150455 -0.26481134
-5.7618594 -3.0818999 -0.26198992
-5.7891564 -3.0731673 -0.26279604
-5.7811098 -3.0456364 -0.26198992
-5.7817988 -3.0228217 -0.26158684
-5.8533239 -3.0369072 -0.26440829
-5.8273172 -3.0001779 -0.26279604
-5.8633952 -2.9955165 -0.26400521
-5.8821011 -2.9586167 -0.26400521
-5.8343282 -3.1551325 -0.30630037
-5.8461452 -3.0906641 -0.30537218
-5.8469815 -3.0676384 -0.30490807
-5.8565898 -3.0492554 -0.30490807
-5.8572674 -3.0262527 -0.30444399
-5.8756328 -3.0123973 -0.30490807
-5.9117742 -3.0075185 -0.30630037
-5.9474177 -3.0034811 -0.30769262
-6.0282607 -3.0206025 -0.31140536
-6.0645514 -3.0149965 -0.31279764
-6.1008658 -3.0091939 -0.31418991
-6.1192608 -2.9944048 -0.31465399
-6.0926971 -2.9577072 -0.31279764
-5.4633074 -3.1951313 -0.87496978
-5.4904399 -3.1879141 -0.8777256
-5.5004282 -3.1706491 -0.8777256
-5.4416232 -3.1139393 -0.86670238
-5.4543629 -3.0308583 -0.86256862
-5.4205151 -2.9897509 -0.85567915
-5.9121428 -3.1426523 -0.92595226
-5.8879166 -3.0824385 -0.91906279
-5.8624282 -3.0456326 -0.91355109
-5.5375743 -2.85446 -0.8611908
-5.6434693 -2.8867478 -0.87634766
-5.9438415 -3.0171895 -0.92181861
-5.9709759 -3.007426 -0.92457443
-5.9626813 -2.979784 -0.92181861
-5.9808836 -2.9654431 -0.92319649
-5.9635181 -2.9335024 -0.91906279
-5.8927193 -2.8527422 -0.90528369
-5.6606822 -2.7182436 -0.86808026
-6.0267639 -2.8479466 -0.92181861
-6.0625753 -2.8416326 -0.92595226
-6.080451 -2.8267543 -0.9273302
-6.0982924 -2.8117933 -0.92870808
-6.134109 -2.8049991 -0.93284184
-6.1789589 -2.8021069 -0.93835348
-5.788723 -3.0669589 -0.34123042
-5.781179 -3.03846 -0.34018371
-5.7901692 -3.0212922 -0.34018371
-5.8001561 -3.0020759 -0.34018371
-5.8184433 -2.9883986 -0.34070706
-5.8367014 -2.9746377 -0.34123042
-5.8989735 -2.9843411 -0.34437057
-5.998107 -3.0095241 -0.34960419
-6.0427709 -3.0095127 -0.35169762
-6.052196 -2.9905131 -0.35169762
-6.0974326 -2.9890592 -0.35379106
-6.1067934 -2.969888 -0.35379106
-6.1160927 -2.9506891 -0.35379106
-6.1163244 -2.9271507 -0.3532677
-6.116467 -2.9036417 -0.35274434
-5.7857661 -3.2380412 -0.62299633
-5.8046083 -3.2246912 -0.62393737
-5.8147111 -3.2064388 -0.62393737
-5.8334846 -3.1929433 -0.62487847
-5.86972 -3.1888793 -0.62770176
-5.8972268 -3.179888 -0.6295839
-5.8995128 -3.1334183 -0.62770176
-5.8559685 -3.0879953 -0.62205523
-5.8480072 -3.0603359 -0.62017304
-5.8310976 -3.0281632 -0.61734986
-5.8759661 -3.0280993 -0.62111413
-5.8588691 -2.9960055 -0.6182909
-5.8771272 -2.9820957 -0.619232
-5.8953547 -2.9681025 -0.62017304
-5.9046507 -2.9495661 -0.62017304
-5.9138875 -2.9310024 -0.62017304
-5.9319973 -2.9168084 -0.62111413
-5.9411311 -2.8981588 -0.62111413
-5.7620907 -2.7882562 -0.60135144
-5.7528782 -2.7615097 -0.59946924
-5.7615256 -2.743422 -0.59946924
-5.7791138 -2.729568 -0.60041034
-5.7966728 -2.7156293 -0.60135144
-5.8232255 -2.7058113 -0.60323358
-6.2203407 -2.8669989 -0.64370012
-6.238368 -2.8515899 -0.64464122
-6.2563605 -2.8360939 -0.64558226
-6.2561622 -2.8123369 -0.64464122
-6.2831459 -2.8007905 -0.64652336
-5.7759228 -3.0436089 -0.37529847
-5.7854567 -3.0254476 -0.37529847
-5.8037968 -3.0118489 -0.37587583
-5.8221102 -2.9981635 -0.37645325
-5.8315001 -2.9798589 -0.37645325
-5.9210033 -3.0020902 -0.38164967
-5.9214835 -2.9789956 -0.38107228
-5.9397492 -2.9648285 -0.38164967
-5.957984 -2.9505777 -0.38222706
-5.9761877 -2.93624 -0.38280442
-5.99436 -2.9218185 -0.38338181
-6.00351 -2.9029715 -0.38338181
-6.1206574 -2.9358234 -0.39031041
-6.1208324 -2.9122975 -0.38973305
-6.0842915 -2.8728468 -0.38684613
-5.947464 -3.2255521 -0.43025246
-5.896677 -3.1514704 -0.42514563
-5.83605 -3.0954618 -0.42003876
-5.8280921 -3.0677996 -0.41876206
-5.7934933 -3.0263348 -0.41557026
-5.8295407 -3.0219195 -0.41748536
-5.8567462 -3.0127363 -0.41876206
-5.8928366 -3.0079548 -0.4206771
-5.9289536 -3.0029778 -0.42259219
-5.9383593 -2.9843359 -0.42259219
-5.9387774 -2.9612055 -0.42195383
-5.9480515 -2.9425328 -0.42195383
-5.9572659 -2.9238327 -0.42195383
-5.9753914 -2.9094787 -0.42259219
-5.9845023 -2.8906927 -0.42259219
-5.9935541 -2.8718767 -0.42259219
-6.0115561 -2.8573256 -0.42323053
-6.065619 -2.8597414 -0.42642233
-5.8948417 -3.2533355 -0.4762443
-5.8725805 -3.1691952 -0.47198573
-5.8737164 -3.1460192 -0.47127602
-5.9011841 -3.1369188 -0.4726955
-5.8492618 -3.0857677 -0.46772721
-5.8500919 -3.062747 -0.4670175
-5.8596845 -3.044354 -0.4670175
-5.8780847 -3.0305028 -0.46772721
-5.9230914 -3.0302041 -0.47056624
-5.8970098 -2.99351 -0.46772721
-5.8880525 -2.9670179 -0.46630773
-5.8973441 -2.9485061 -0.46630773
-5.9155135 -2.9343991 -0.4670175
-5.9247026 -2.9158013 -0.4670175
-5.9248714 -2.8927941 -0.46630773
-5.9429059 -2.8785179 -0.4670175
-5.95192 -2.8598328 -0.4670175
-5.960875 -2.8411207 -0.4670175
-6.005837 -2.8394446 -0.4698565
-5.9138651 -3.254596 -0.51397729
-5.8978047 -3.221669 -0.51168615
-5.8815975 -3.188874 -0.50939506
-5.8564596 -3.1514914 -0.50634015
-5.8487391 -3.1236868 -0.50481278
-5.8409014 -3.0959635 -0.50328535
-5.8947277 -3.1007953 -0.50710392
-5.8867593 -3.0730383 -0.50557649
-5.8963847 -3.0545287 -0.50557649
-5.8970823 -3.0314341 -0.50481278
-5.8621612 -2.9902513 -0.50099421
-5.8715258 -2.9718208 -0.50099421
-5.898139 -2.9633346 -0.50252163
-5.9168587 -2.9482031 -0.50328535
-5.9166417 -2.9262171 -0.50252163
-5.916853 -2.9032245 -0.50175792
-5.9259443 -2.8846226 -0.50175792
-5.9170179 -2.8573239 -0.50023049
-5.9169717 -2.8344169 -0.49946681
-5.9258471 -2.8158133 -0.49946681
-5.9527044 -2.8056805 -0.50099421
-6.1782975 -2.8882484 -0.51932329
-5.7753625 -3.1052883 -0.18660074
-5.776269 -3.0824263 -0.18631454
-5.7770901 -3.059588 -0.18602836
-5.813221 -3.0553684 -0.18688694
-5.8139277 -3.0324695 -0.18660074
-5.8145466 -3.009598 -0.18631454
-5.8156018 -2.9857366 -0.18602836
-5.8338609 -2.9719858 -0.18631454
-5.8246851 -3.26547 -0.54107684
-5.8805671 -3.2470315 -0.54432654
-5.8901749 -3.2295694 -0.54432654
-5.9002924 -3.2110481 -0.54432654
-5.875258 -3.1735775 -0.54107684
-5.8236833 -3.1221879 -0.53538984
-5.8246603 -3.0992031 -0.53457743
-5.8431854 -3.0855353 -0.53538984
-5.9058414 -3.0948789 -0.54026437
-5.8713036 -3.0533521 -0.53620225
-5.8720055 -3.030329 -0.53538984
-5.8637462 -3.0027957 -0.53376496
-5.8820405 -2.9888666 -0.53457743
-5.9003043 -2.9748535 -0.53538984
-5.9096212 -2.9563017 -0.53538984
-5.9099479 -2.9332986 -0.53457743
-5.9191346 -2.9147165 -0.53457743
-5.9193025 -2.8917396 -0.53376496
-5.9014406 -2.8601103 -0.53132772
-5.8834376 -2.8286231 -0.52889043
-5.8922954 -2.8101249 -0.52889043
-5.9006071 -2.79263 -0.52889043
-5.9274025 -2.7825356 -0.53051525
-6.1711287 -2.8730893 -0.55163836
-6.2525411 -2.887058 -0.55813783
-5.754725 -3.1190498 -0.22719571
-5.7556911 -3.0962276 -0.22684672
-5.7212892 -3.0546331 -0.22510175
-5.7396927 -3.0413153 -0.22545075
-5.7492185 -3.0232692 -0.22545075
-5.749824 -3.0005755 -0.22510175
-5.7769785 -2.9916747 -0.22579974
-5.7863493 -2.9735103 -0.22579974
-5.8223829 -2.9689155 -0.22684672
-5.8673668 -2.9686263 -0.22824271
