# .PCD v0.7 - Point Cloud Data file format
VERSION 0.7
FIELDS x y z
SIZE 4 4 4
TYPE F F F
COUNT 1 1 1
WIDTH 65
HEIGHT 1
VIEWPOINT 0 0 0 1 0 0 0
POINTS 65
DATA ascii
0.17861012 19.828447 0.11398159
0.24101818 19.837788 0.11403918
0.30333659 19.836933 0.11403918
0.36566257 19.835882 0.11403918
0.43337148 19.924538 0.11455754
0.14053495 19.859428 0.0034592424
0.32704335 19.817225 0.003452261
0.39046958 19.876091 0.0034627332
0.45585692 20.00473 0.0034854223
0.29148856 19.791643 0.78995782
0.20273507 19.858675 -0.093395405
0.26471615 19.827944 -0.09325403
0.32684827 19.817015 -0.093206912
0.38969266 19.845884 -0.09334828
0.45295027 19.884552 -0.093536772
0.19278063 19.91762 -0.20470826
0.31645635 19.826033 -0.20378152
0.37893116 19.834938 -0.20388448
0.44170073 19.853643 -0.20409043
0.50663322 19.95212 -0.20512016
0.10579666 19.810802 0.57989675
0.16803096 19.810371 0.57989675
0.23026362 19.809746 0.57989675
0.29278359 19.828915 0.58048308
0.35631782 19.897856 0.58253533
0.09532775 19.824362 0.45934162
0.1573797 19.793976 0.45864531
0.21945098 19.783386 0.45841321
0.28216389 19.822584 0.45934162
0.34529805 19.87158 0.46050218
0.14341335 19.796345 0.34830779
0.20570676 19.805794 0.34848407
0.26833317 19.835041 0.34901285
0.33081037 19.844097 0.34918913
0.39435226 19.902939 0.35024673
0.1331811 19.857754 0.23522297
0.1977963 19.737217 0.2337988
0.26073965 19.80649 0.23462959
0.32230699 19.765579 0.23415485
0.3847926 19.784464 0.23439223
0.38162661 19.949739 -0.80330139
0.4471167 19.918396 -0.80209219
0.50944507 19.906904 -0.80168915
0.57169509 19.895216 -0.80128604
0.26988056 19.924723 -0.34712836
0.33132377 19.853798 -0.3459067
0.39794907 19.892574 -0.34660476
0.46043882 19.891226 -0.34660476
0.523184 19.899677 -0.34677929
0.58832854 19.987883 -0.34835002
0.30439726 19.922241 -0.46165803
0.36624792 19.881207 -0.46072963
0.42892724 19.88995 -0.4609617
0.49116266 19.878511 -0.46072963
0.55471736 19.916843 -0.46165803
0.329638 19.989033 -0.57125014
0.39006561 19.867973 -0.56781578
0.45270663 19.876642 -0.568102
0.51566589 19.895105 -0.56867433
0.57846487 19.903379 -0.56896055
0.31832406 19.944923 -0.695198
0.44274014 19.902563 -0.69380194
0.5050047 19.891085 -0.69345295
0.56835252 19.919369 -0.69449997
0.63347882 19.997396 -0.69729191
