# .PCD v0.7 - Point Cloud Data file format
VERSION 0.7
FIELDS x y z
SIZE 4 4 4
TYPE F F F
COUNT 1 1 1
WIDTH 70
HEIGHT 1
VIEWPOINT 0 0 0 1 0 0 0
POINTS 70
DATA ascii
-14.026359 -17.783356 0.13022353
-14.443283 -17.394476 0.12999316
-14.040537 -17.286205 0.0038798668
-14.432397 -17.430416 0.0039426987
-14.12643 -17.806803 -0.10691936
-14.106141 -17.335661 -0.10512873
-14.386524 -17.455023 -0.10640102
-14.127541 -17.355299 -0.23003937
-14.194669 -17.326298 -0.23024531
-14.376297 -17.43589 -0.23230475
-13.762319 -17.926332 0.66169208
-13.818568 -17.883009 0.66169208
-13.859386 -17.813414 0.66081256
-13.788602 -17.500683 0.65231055
-13.798555 -17.288677 0.64761978
-13.81525 -17.198477 0.64586073
-13.976016 -17.287159 0.65084469
-13.973493 -17.173374 0.64820611
-14.227294 -17.262686 0.65494913
-14.160246 -17.071695 0.64937884
-13.82292 -17.998232 0.52595663
-13.928304 -18.017998 0.52781349
-13.665641 -17.563826 0.51574385
-13.794711 -17.615267 0.51852918
-13.825233 -17.540432 0.51760072
-13.948606 -17.583073 0.52015394
-13.841613 -17.336023 0.51411909
-13.889744 -17.28466 0.51388699
-13.796418 -17.064552 0.5085485
-13.919363 -17.10643 0.51110172
-14.0047 -17.101294 0.51226223
-14.299952 -17.350389 0.52108234
-14.56499 -17.559326 0.5287419
-14.370248 -17.214148 0.51968968
-13.693781 -18.1751 0.40048343
-13.834006 -18.005594 0.39960212
-13.565255 -17.315622 0.38708699
-13.613393 -17.265072 0.38691071
-13.698648 -17.261374 0.38779208
-13.721603 -17.179195 0.38691071
-13.813099 -17.182755 0.38796833
-14.612181 -17.95097 0.40735793
-13.939765 -17.015577 0.38708699
-14.60382 -17.71224 0.40400884
-14.461449 -17.427759 0.39854446
-14.464849 -17.320854 0.3971343
-13.932885 -18.120771 0.27082685
-13.948767 -17.791962 0.26785988
-14.016982 -17.763752 0.26809722
-14.013258 -17.202837 0.26287532
-14.555439 -17.416615 0.26892799
-14.369774 -17.844404 -0.92260754
-14.334492 -17.461002 -0.90970963
-14.729204 -17.601044 -0.92421985
-14.335225 -17.839214 -1.0613772
-14.394371 -17.804371 -1.0618412
-14.292636 -17.56534 -1.050239
-14.316105 -17.481709 -1.0479186
-14.476677 -17.452927 -1.0516312
-14.601847 -17.491716 -1.0567362
-14.30538 -17.400682 -0.3925046
-14.391831 -17.394182 -0.39337721
-14.31428 -17.442162 -0.5229339
-14.248058 -17.250641 -0.51852393
-14.792323 -17.682232 -0.53430706
-14.750331 -17.556702 -0.65539217
-14.31407 -17.805429 -0.79640651
-14.300769 -17.455841 -0.78663462
-14.330102 -17.37999 -0.78523868
-14.669704 -17.565699 -0.79780245
