# .PCD v0.7 - Point Cloud Data file format
VERSION 0.7
FIELDS x y z
SIZE 4 4 4
TYPE F F F
COUNT 1 1 1
WIDTH 78
HEIGHT 1
VIEWPOINT 0 0 0 1 0 0 0
POINTS 78
DATA ascii
-25.379824 17.659369 0.17785504
-25.350105 17.876093 0.178431
-25.179646 17.874628 0.17762467
-25.277969 18.064081 0.17871898
-25.115551 18.067513 0.17797025
-25.099169 18.17564 0.17825823
-25.454493 17.411772 0.0053756139
-25.498499 17.559711 0.005396558
-25.139128 17.428934 0.0053319805
-25.128311 17.532053 0.005340707
-24.930931 17.517559 0.0053110365
-24.916595 17.624672 0.0053197634
-24.732214 17.728449 0.0053040553
-24.757496 17.864567 0.0053215087
-24.765976 17.989271 0.0053354711
-24.708838 18.186014 0.0053476887
-25.339394 17.22497 -0.1441927
-25.318165 17.327082 -0.14438118
-25.016577 17.236317 -0.14296754
-24.92944 17.292021 -0.14277904
-24.907789 17.393154 -0.14296754
-24.771217 17.413807 -0.14249632
-24.773527 17.531979 -0.14282617
-24.653172 17.563301 -0.1424492
-24.760391 17.757227 -0.14339162
-24.685156 17.827528 -0.14329739
-24.48344 17.799143 -0.1424492
-24.663181 18.28093 -0.14447543
-24.867468 17.238209 -0.31118128
-24.755798 17.276176 -0.31046048
-24.824116 17.440113 -0.31200504
-24.646761 17.431379 -0.31046048
-24.697756 17.584141 -0.31179911
-24.731787 17.725733 -0.31293181
-24.870571 17.943796 -0.31540313
-24.603745 17.869022 -0.31272584
-25.031763 18.300402 -0.31890416
-24.763639 18.344202 -0.3169477
-24.761992 18.463762 -0.3176685
-25.088125 17.159231 -0.52985501
-25.17411 17.334333 -0.53282195
-25.119526 17.413338 -0.53282195
-24.999098 17.446398 -0.53142577
-24.985073 17.553585 -0.53229839
-24.939457 17.756605 -0.53369457
-25.037977 17.945503 -0.53701055
-24.527348 17.69655 -0.52723718
-24.584908 17.855753 -0.52968049
-24.415674 17.850311 -0.52723718
-24.815359 18.268976 -0.53718507
-24.451603 18.239254 -0.53177482
-25.175201 17.291765 -0.7081542
-25.12075 17.370773 -0.7081542
-25.42709 17.700901 -0.7183668
-25.259823 17.695967 -0.71511734
-24.955923 17.606752 -0.7081542
-24.770065 17.592455 -0.70444047
-24.576418 17.571344 -0.70049465
-24.610353 17.712706 -0.70304787
-24.497915 17.748877 -0.70142311
-24.789375 18.079041 -0.71140367
-24.708281 18.139078 -0.71070731
-24.538603 18.133442 -0.70745784
-25.305567 17.552874 -0.8806296
-25.176544 17.580772 -0.87805378
-25.42374 17.872501 -0.88864315
-25.000313 17.692415 -0.87576419
-24.773647 17.649063 -0.86975408
-25.197147 18.190567 -0.88864315
-24.578833 17.868423 -0.86889547
-24.732304 18.099043 -0.87633663
-24.667271 18.170727 -0.87605041
-25.13291 17.422209 -1.0665286
-25.204191 17.825693 -1.0766494
-25.082941 17.858408 -1.0738574
-25.034838 17.94294 -1.0742065
-25.124208 18.126783 -1.0804884
-25.059053 18.199747 -1.0801394
