# .PCD v0.7 - Point Cloud Data file format
VERSION 0.7
FIELDS x y z
SIZE 4 4 4
TYPE F F F
COUNT 1 1 1
WIDTH 1354
HEIGHT 1
VIEWPOINT 0 0 0 1 0 0 0
POINTS 1354
DATA ascii
1.0724167 -4.569345 -0.8449229
1.0514364 -4.5439258 -0.83956397
1.0335935 -4.5278354 -0.83599138
1.0150678 -4.5118566 -0.83241874
0.99877053 -4.5054145 -0.83063251
0.98252374 -4.4989147 -0.82884616
0.96427023 -4.4827361 -0.82527351
0.94612819 -4.4664874 -0.82170093
0.92809778 -4.4501686 -0.81812829
0.91214585 -4.4434218 -0.81634194
0.8962456 -4.4366188 -0.8145557
0.88039702 -4.4297595 -0.81276935
0.86724997 -4.4323521 -0.81276935
0.85070151 -4.4255395 -0.81098312
0.83575034 -4.4183741 -0.80919677
0.8218655 -4.4209776 -0.80919677
0.80797255 -4.4235377 -0.80919677
0.79407156 -4.4260545 -0.80919677
0.78016281 -4.4285269 -0.80919677
0.76624632 -4.4309564 -0.80919677
0.75232226 -4.4333415 -0.80919677
0.7383908 -4.4356833 -0.80919677
0.72602522 -4.4476938 -0.81098312
0.71050614 -4.4402351 -0.80919677
0.69655323 -4.4424453 -0.80919677
0.68259406 -4.4446115 -0.80919677
0.6686275 -4.446734 -0.80919677
0.65465438 -4.4488125 -0.80919677
0.64067477 -4.4508471 -0.80919677
0.62746561 -4.4527287 -0.80919677
0.61480415 -4.464427 -0.81098312
0.60077566 -4.4663363 -0.81098312
0.58674186 -4.4682016 -0.81098312
0.57270169 -4.4700232 -0.81098312
0.55865592 -4.4718003 -0.81098312
0.54578149 -4.4833016 -0.81276935
0.53169405 -4.4849939 -0.81276935
0.51871699 -4.496418 -0.8145557
0.50567329 -4.5078044 -0.81634194
0.49256322 -4.5191536 -0.81812829
0.47938678 -4.5304642 -0.81991458
0.46614417 -4.5417371 -0.82170093
0.45555735 -4.5724759 -0.82705986
0.44398856 -4.6032691 -0.83241874
1.0830736 -4.4495893 0.026148379
1.0504633 -4.4368505 0.026033187
1.028147 -4.4010086 0.025802806
1.0075469 -4.3749909 0.025630018
0.99602312 -4.3878837 0.025687614
0.97784323 -4.3714795 0.025572425
0.96194059 -4.3647666 0.025514828
0.94608992 -4.3579979 0.025457233
0.93029118 -4.3511724 0.025399636
0.91868925 -4.3638563 0.025457233
0.90089226 -4.3471427 0.025342042
0.88723087 -4.3499513 0.025342042
0.87432057 -4.3525648 0.025342042
0.86183107 -4.3652477 0.025399636
0.84811294 -4.3679338 0.025399636
0.83249903 -4.3607569 0.025342042
0.8187952 -4.3633509 0.025342042
0.80508333 -4.3659015 0.025342042
0.79136348 -4.3684092 0.025342042
0.77587235 -4.3610306 0.025284445
0.76466388 -4.3731618 0.025342042
0.75092143 -4.3755426 0.025342042
0.73382592 -4.3581619 0.025226852
0.72341436 -4.3801742 0.025342042
0.70481753 -4.3528175 0.025169255
0.6958788 -4.3846331 0.025342042
0.68210119 -4.3867974 0.025342042
0.66983402 -4.3988028 0.025399636
0.65898484 -4.4206624 0.025514828
0.64218247 -4.4029245 0.025399636
0.62977165 -4.4148183 0.025457233
0.61945975 -4.4364715 0.025572425
0.60551912 -4.4383955 0.025572425
0.59157306 -4.4402761 0.025572425
0.57814515 -4.4521279 0.025630018
0.56620371 -4.4637427 0.025687614
0.55217767 -4.4654994 0.025687614
0.53935438 -4.4771385 0.025745209
0.52646351 -4.4887414 0.025802806
0.51350498 -4.5003071 0.025860401
0.49936429 -4.5018978 0.025860401
0.48630217 -4.5133858 0.025917998
0.47527716 -4.544724 0.026090782
0.46610197 -4.5959325 0.026378762
1.0999365 -4.6715813 -0.53725946
1.0696076 -4.6072383 -0.52940804
1.0374892 -4.533062 -0.52043504
1.0188942 -4.5169072 -0.51819181
0.99905092 -4.4908028 -0.51482689
0.97859228 -4.4647918 -0.51146203
0.96247619 -4.458128 -0.51034039
0.94846582 -4.4611297 -0.51034039
0.93039894 -4.4446301 -0.50809711
0.91643113 -4.4475312 -0.50809711
0.89852953 -4.4309058 -0.50585389
0.88460499 -4.4337068 -0.50585389
0.87067169 -4.4364638 -0.50585389
0.85485935 -4.4294186 -0.50473225
0.84171343 -4.4319353 -0.50473225
0.82701176 -4.4347024 -0.50473225
0.81207007 -4.4273601 -0.50361061
0.7981571 -4.4298892 -0.50361061
0.78423625 -4.432375 -0.50361061
0.77030766 -4.4348168 -0.50361061
0.75802869 -4.4470129 -0.50473225
0.74405426 -4.4493723 -0.50473225
0.72847682 -4.4418797 -0.50361061
0.71451867 -4.4441466 -0.50361061
0.7020874 -4.4561872 -0.50473225
0.68808442 -4.4583712 -0.50473225
0.67407465 -4.4605107 -0.50473225
0.6600582 -4.4626064 -0.50473225
0.64744622 -4.474494 -0.50585389
0.63476557 -4.4863467 -0.50697553
0.62066811 -4.4883189 -0.50697553
0.60734785 -4.4901404 -0.50697553
0.59323865 -4.4920263 -0.50697553
0.58038104 -4.5037246 -0.50809711
0.56622934 -4.5055261 -0.50809711
0.55326813 -4.5171475 -0.50921875
0.53790981 -4.5089946 -0.50809711
0.52487528 -4.5205345 -0.50921875
0.51177347 -4.5320363 -0.51034039
0.49646169 -4.5237432 -0.50921875
0.48432833 -4.5450449 -0.51146203
0.47206599 -4.5663152 -0.51370531
0.45869642 -4.5776639 -0.51482689
0.44526026 -4.5889745 -0.51594853
1.0448463 -4.4386053 0.00078888878
1.0226063 -4.4027271 0.00078190747
1.0065336 -4.3961706 0.00078016211
0.98830718 -4.3798037 0.00077667146
0.97236818 -4.3731265 0.00077492616
0.9564808 -4.3663917 0.0007731808
0.94064546 -4.3596015 0.0007714355
0.92694473 -4.362535 0.0007714355
0.911183 -4.355638 0.00076969014
0.89547443 -4.3486857 0.00076794485
0.88180822 -4.3514771 0.00076794485
0.86889285 -4.3540745 0.00076794485
0.85520983 -4.3567829 0.00076794485
0.84075791 -4.3595948 0.00076794485
0.82705766 -4.3622146 0.00076794485
0.81411064 -4.3646493 0.00076794485
0.80039525 -4.3671851 0.00076794485
0.7866714 -4.3696785 0.00076794485
0.77293974 -4.372128 0.00076794485
0.75843686 -4.3746672 0.00076794485
0.7430082 -4.3671703 0.00076619949
0.73169965 -4.3792186 0.00076794485
0.7179383 -4.381496 0.00076794485
0.70416987 -4.3837295 0.00076794485
0.69039452 -4.38592 0.00076794485
0.67966861 -4.4078326 0.0007714355
0.66432053 -4.4000587 0.00076969014
0.65196007 -4.4120159 0.0007714355
0.63809609 -4.4140425 0.0007714355
0.62703347 -4.4358273 0.00077492616
0.61386955 -4.4376683 0.00077492616
0.59992516 -4.4395747 0.00077492616
0.58728701 -4.4513507 0.00077667146
0.57329977 -4.4531741 0.00077667146
0.56180662 -4.4747963 0.00078016211
0.54652721 -4.4666138 0.00077841681
0.53486723 -4.4881673 0.00078190747
0.52076459 -4.4898252 0.00078190747
0.50890702 -4.5113125 0.00078539812
0.49691954 -4.5327687 0.00078888878
0.48453289 -4.5441661 0.00079063408
0.47255525 -4.5755882 0.00079587009
1.0778857 -4.3648987 0.17821001
1.0571089 -4.3391299 0.17701127
1.0388271 -4.3229928 0.17621212
1.0229491 -4.3165097 0.17581256
1.0071219 -4.3099689 0.17541298
0.99134612 -4.3033724 0.17501341
0.97637171 -4.2965479 0.17461383
0.96286887 -4.2995939 0.17461383
0.94721609 -4.2928381 0.17421426
0.93161517 -4.2860255 0.17381468
0.92022479 -4.2987046 0.17421426
0.90466702 -4.2917943 0.17381468
0.89117944 -4.2946153 0.17381468
0.8776831 -4.2973938 0.17381468
0.86417812 -4.3001299 0.17381468
0.85259008 -4.3126287 0.17421426
0.83789426 -4.3053288 0.17381468
0.82174873 -4.2982669 0.17341509
0.81082672 -4.3105083 0.17381468
0.79547703 -4.3032064 0.17341509
0.78195423 -4.3056841 0.17341509
0.76668173 -4.2982807 0.17301553
0.75488549 -4.3105125 0.17341509
0.73965985 -4.3030128 0.17301553
0.72778696 -4.3151703 0.17341509
0.7142269 -4.3174353 0.17341509
0.70224696 -4.3295231 0.17381468
0.68864191 -4.331708 0.17381468
0.67503005 -4.3338504 0.17381468
0.66290569 -4.3458295 0.17421426
0.64924961 -4.3478904 0.17421426
0.63701916 -4.3597975 0.17461383
0.62472028 -4.3716707 0.17501341
0.61174667 -4.3735051 0.17501341
0.60068494 -4.3952084 0.17581256
0.58556455 -4.3871679 0.17541298
0.57305729 -4.3988957 0.17581256
0.56048203 -4.4105883 0.17621212
0.54662299 -4.4123273 0.17621212
0.53394341 -4.4239445 0.17661171
0.52234983 -4.4454503 0.17741086
0.50838149 -4.4470696 0.17741086
0.49768186 -4.4784412 0.17860956
0.48573008 -4.4998536 0.17940871
0.47364926 -4.5212355 0.18020786
1.0855331 -4.4287848 -0.021299053
1.0399463 -4.4191666 -0.021204809
1.0170327 -4.3834438 -0.021016322
1.0032568 -4.3866177 -0.021016322
0.98727578 -4.3799915 -0.020969199
0.96918201 -4.3635459 -0.020874955
0.95333511 -4.3567996 -0.020827835
0.93754005 -4.3499966 -0.020780712
0.92179734 -4.3431377 -0.020733591
0.90814841 -4.3460126 -0.020733591
0.89247972 -4.3390484 -0.020686468
0.87884378 -4.3418307 -0.020686468
0.86519921 -4.3445702 -0.020686468
0.85230494 -4.3471179 -0.020686468
0.83675468 -4.3399549 -0.020639349
0.82311618 -4.3425622 -0.020639349
0.80946958 -4.3451266 -0.020639349
0.7968508 -4.3576241 -0.020686468
0.78391814 -4.3599691 -0.020686468
0.770217 -4.3624105 -0.020686468
0.75650829 -4.3648086 -0.020686468
0.74279213 -4.3671637 -0.020686468
0.72906858 -4.3694758 -0.020686468
0.71771365 -4.3814888 -0.020733591
0.70394528 -4.3837218 -0.020733591
0.69016993 -4.3859119 -0.020733591
0.67714006 -4.3980603 -0.020780712
0.6640873 -4.4000502 -0.020780712
0.65317559 -4.4219007 -0.020874955
0.63708436 -4.414145 -0.020827835
0.62600064 -4.4359293 -0.020922078
0.61147171 -4.4278603 -0.020874955
0.60022461 -4.4495807 -0.020969199
0.58624285 -4.4514446 -0.020969199
0.57352602 -4.4631834 -0.021016322
0.55950165 -4.464963 -0.021016322
0.54668009 -4.476625 -0.021063443
0.53261364 -4.4783206 -0.021063443
0.51968789 -4.4899058 -0.021110566
0.5066945 -4.5014539 -0.021157686
0.49471715 -4.5229053 -0.02125193
0.48340333 -4.5442414 -0.021346172
0.47423834 -4.5954752 -0.021581784
1.0950134 -4.3051758 0.25462577
1.0839257 -4.318275 0.25520316
1.0679423 -4.3119712 0.25462577
1.0520092 -4.3056097 0.25404838
1.0337758 -4.2894883 0.25289363
1.0202949 -4.2927151 0.25289363
1.004514 -4.2861819 0.25231624
0.98878431 -4.2795925 0.25173885
0.97385174 -4.2727761 0.25116146
0.9626236 -4.2855525 0.25173885
0.94915539 -4.2885556 0.25173885
0.93567777 -4.2915163 0.25173885
0.92008293 -4.2846761 0.25116146
0.90869504 -4.2973104 0.25173885
0.89519018 -4.3001442 0.25173885
0.87966043 -4.2931576 0.25116146
0.86418349 -4.2861156 0.25058407
0.85266852 -4.2985997 0.25116146
0.83798522 -4.2913146 0.25058407
0.82564294 -4.3038721 0.25116146
0.81211782 -4.3064446 0.25116146
0.79675335 -4.299161 0.25058407
0.78324324 -4.3016429 0.25058407
0.76972538 -4.3040819 0.25058407
0.7561999 -4.306479 0.25058407
0.74266696 -4.3088336 0.25058407
0.73155797 -4.3208594 0.25116146
0.71797997 -4.3231363 0.25116146
0.70439488 -4.3253708 0.25116146
0.69080287 -4.3275623 0.25116146
0.67875892 -4.3395729 0.25173885
0.66359848 -4.3318172 0.25116146
0.6529721 -4.3536224 0.25231624
0.63929158 -4.3556523 0.25231624
0.62703556 -4.3675199 0.25289363
0.61331153 -4.3694682 0.25289363
0.59958142 -4.3713737 0.25289363
0.58794814 -4.3830261 0.25347099
0.57417554 -4.3848515 0.25347099
0.56167448 -4.3965354 0.25404838
0.54833663 -4.4082789 0.25462577
0.53525418 -4.4098864 0.25462577
0.52258128 -4.4214592 0.25520316
0.50984091 -4.4329953 0.25578052
0.49703324 -4.4444957 0.25635791
0.48415828 -4.4559584 0.2569353
0.47439361 -4.4971657 0.2592448
0.46334746 -4.5284247 0.26097697
1.0524403 -4.4670653 -0.046852242
1.009895 -4.3435173 -0.045513611
1.0006887 -4.3661675 -0.045719553
0.98696762 -4.3692899 -0.045719553
0.96891451 -4.3528423 -0.045513611
0.95523483 -4.355865 -0.045513611
0.93524724 -4.3295145 -0.045204692
0.91957235 -4.322648 -0.045101721
0.9059878 -4.3255157 -0.045101721
0.89440155 -4.3381367 -0.045204692
0.87681556 -4.3213205 -0.04499875
0.86399025 -4.3239031 -0.04499875
0.85156161 -4.3365588 -0.045101721
0.8368054 -4.329246 -0.04499875
0.82320058 -4.3318539 -0.04499875
0.81141162 -4.3442507 -0.045101721
0.79775971 -4.3467784 -0.045101721
0.78233778 -4.3394198 -0.04499875
0.77043247 -4.3517051 -0.045101721
0.7550571 -4.3442497 -0.04499875
0.74140549 -4.3466005 -0.04499875
0.72938496 -4.3587728 -0.045101721
0.71890259 -4.3807817 -0.045307666
0.70355999 -4.3731437 -0.045204692
0.69136322 -4.3852119 -0.045307666
0.67606902 -4.3774781 -0.045204692
0.6637966 -4.3894691 -0.045307666
0.65145552 -4.4014263 -0.045410637
0.63981628 -4.4132376 -0.045513611
0.62594855 -4.415226 -0.045513611
0.61343515 -4.4270768 -0.045616578
0.59819466 -4.4190717 -0.045513611
0.58560699 -4.4308438 -0.045616578
0.57295138 -4.4425807 -0.045719553
0.56022769 -4.4542813 -0.045822524
0.54743618 -4.4659462 -0.045925498
0.53340328 -4.4676442 -0.045925498
0.51936513 -4.4692979 -0.045925498
0.50754416 -4.4907823 -0.04613144
0.49667323 -4.5221772 -0.046440355
0.48456135 -4.5436039 -0.046646297
0.47617421 -4.594759 -0.047161162
1.1795493 -4.2961264 0.35759324
1.1556606 -4.2613177 0.35436442
1.1397014 -4.2552962 0.35355723
1.1237912 -4.2492161 0.35275
1.1029192 -4.2237835 0.35032836
1.0871689 -4.2175732 0.34952119
1.0739137 -4.2209678 0.34952119
1.0582331 -4.2146497 0.34871396
1.0449872 -4.2179537 0.34871396
1.0293776 -4.2115302 0.34790677
1.0161417 -4.2147436 0.34790677
1.0006026 -4.2082148 0.34709954
0.98511469 -4.2016306 0.34629235
0.97191 -4.2047048 0.34629235
0.95869577 -4.2077374 0.34629235
0.94620651 -4.2105632 0.34629235
0.93083245 -4.2037802 0.34548512
0.91762125 -4.2066836 0.34548512
0.90232027 -4.1997986 0.34467793
0.89117193 -4.2123666 0.34548512
0.87591445 -4.2053847 0.34467793
0.86269855 -4.2081161 0.34467793
0.84947413 -4.2108054 0.34467793
0.83624125 -4.2134533 0.34467793
0.82300019 -4.2160597 0.34467793
0.81048739 -4.218483 0.34467793
0.79649377 -4.2211475 0.34467793
0.78396606 -4.2234921 0.34467793
0.76891828 -4.216126 0.3438707
0.75915819 -4.2381477 0.34548512
0.74583989 -4.2405119 0.34548512
0.73419714 -4.2526584 0.34629235
0.72083336 -4.2549443 0.34629235
0.70908356 -4.2670221 0.34709954
0.69567484 -4.2692285 0.34709954
0.68381846 -4.2812381 0.34790677
0.67036521 -4.2833652 0.34790677
0.65840262 -4.2953038 0.34871396
0.64490527 -4.2973514 0.34871396
0.632837 -4.3092198 0.34952119
0.61929607 -4.3111868 0.34952119
0.60574901 -4.3131108 0.34952119
0.5942933 -4.3247652 0.35032836
0.58070374 -4.326611 0.35032836
0.56839049 -4.3382988 0.35113558
0.55600947 -4.3499517 0.35194281
0.54356086 -4.3615694 0.35275
0.53104472 -4.3731518 0.35355723
0.51846111 -4.3846984 0.35436442
0.50581026 -4.3962092 0.35517165
0.49528313 -4.4274974 0.35759324
0.48243567 -4.438942 0.35840046
0.47572047 -4.509831 0.36405092
1.0569258 -4.3922887 0.13134164
1.0338423 -4.3566966 0.13016894
1.0201502 -4.3599229 0.13016894
1.0049492 -4.3531933 0.12987576
0.98903853 -4.3465858 0.1295826
0.96878076 -4.3204188 0.12870307
0.955203 -4.323441 0.12870307
0.94375372 -4.336185 0.12899625
0.92801929 -4.3293571 0.12870307
0.91441363 -4.3322515 0.12870307
0.89670736 -4.3155346 0.12811673
0.88314527 -4.3183303 0.12811673
0.87354302 -4.3406773 0.12870307
0.85990208 -4.3434 0.12870307
0.84433001 -4.3362713 0.12840991
0.82691991 -4.319272 0.12782356
0.81334645 -4.3218489 0.12782356
0.79976493 -4.3243828 0.12782356
0.78617555 -4.3268738 0.12782356
0.77257836 -4.3293223 0.12782356
0.7589736 -4.331728 0.12782356
0.74782556 -4.3438091 0.12811673
0.73249871 -4.3362837 0.12782356
0.71887225 -4.3385634 0.12782356
0.70685399 -4.3506641 0.12811673
0.69476688 -4.3627329 0.12840991
0.68105751 -4.3648944 0.12840991
0.66734147 -4.3670125 0.12840991
0.65361875 -4.3690872 0.12840991
0.64134985 -4.3810072 0.12870307
0.62758332 -4.3830004 0.12870307
0.61520869 -4.3948483 0.12899625
0.603535 -4.4065557 0.12928942
0.58968842 -4.4084296 0.12928942
0.575836 -4.4102607 0.12928942
0.56120771 -4.4121461 0.12928942
0.54935849 -4.4237099 0.1295826
0.53667122 -4.4353356 0.12987576
0.52627999 -4.4667764 0.13075529
0.50994337 -4.4485493 0.13016894
0.49820414 -4.469995 0.13075529
0.48524696 -4.4814744 0.13104846
0.47433653 -4.5127959 0.13192798
0.46118256 -4.5242062 0.13222115
1.2495856 -4.2051334 0.53454649
1.2363687 -4.2090383 0.53454649
1.218313 -4.1936331 0.53210562
1.2044001 -4.19765 0.53210562
1.1877558 -4.1920743 0.53088522
1.1753126 -4.19558 0.53088522
1.1601983 -4.1894865 0.52966475
1.1470309 -4.1931109 0.52966475
1.1312516 -4.1871157 0.52844435
1.1147914 -4.1812568 0.52722389
1.0965726 -4.1655478 0.52478307
1.0834807 -4.1689725 0.52478307
1.0661465 -4.1529479 0.52234221
1.0530943 -4.1562772 0.52234221
1.0376122 -4.1499391 0.5211218
1.0221803 -4.1435452 0.51990134
1.0091579 -4.1467357 0.51990134
0.99845439 -4.159534 0.5211218
0.9853819 -4.1626501 0.5211218
0.9700315 -4.1560626 0.51990134
0.9569701 -4.1590896 0.51990134
0.94462574 -4.1619105 0.51990134
0.92718875 -4.1454911 0.51746053
0.916309 -4.1580739 0.51868093
0.9011237 -4.1512351 0.51746053
0.88599056 -4.1443424 0.51624012
0.87296635 -4.1471057 0.51624012
0.8599335 -4.1498275 0.51624012
0.84489638 -4.142786 0.51501966
0.83384252 -4.155149 0.51624012
0.81884992 -4.1480126 0.51501966
0.80771863 -4.160306 0.51624012
0.79464465 -4.1628227 0.51624012
0.78156281 -4.1652989 0.51624012
0.76847327 -4.1677337 0.51624012
0.75359464 -4.1603632 0.51501966
0.74052131 -4.1627097 0.51501966
0.72744012 -4.1650157 0.51501966
0.71435177 -4.1672807 0.51501966
0.70198363 -4.1693816 0.51501966
0.69051135 -4.1813574 0.51624012
0.6773718 -4.183506 0.51624012
0.6626575 -4.1758127 0.51501966
0.65261054 -4.1974845 0.51746053
0.63942057 -4.1995139 0.51746053
0.62769991 -4.2113175 0.51868093
0.61446655 -4.2132688 0.51868093
0.60405499 -4.2348261 0.5211218
0.59074789 -4.2367029 0.5211218
0.57743496 -4.2385378 0.5211218
0.56617951 -4.2500691 0.52234221
0.55411685 -4.2616677 0.52356267
0.54072571 -4.2633877 0.52356267
0.52658463 -4.2651572 0.52356267
0.51632601 -4.286406 0.52600348
0.50402564 -4.297863 0.52722389
0.49279568 -4.3191447 0.52966475
0.48033065 -4.3305354 0.53088522
0.46779889 -4.3418899 0.53210562
0.45624483 -4.3630786 0.53454649
0.44354889 -4.3743634 0.5357669
0.43176889 -4.3954883 0.53820777
0.42271441 -4.4462209 0.54430991
0.4124251 -4.4870567 0.54919159
1.096364 -4.4249063 0.1049128
1.0246698 -4.3702073 0.10328803
1.0116987 -4.3732281 0.10328803
0.99127448 -4.3471465 0.10259172
0.97761261 -4.3502393 0.10259172
0.96177554 -4.3435287 0.1023596
0.94385552 -4.3269958 0.10189538
0.93236142 -4.3397131 0.1021275
0.91457635 -4.323061 0.10166328
0.9030332 -4.3356991 0.10189538
0.8873958 -4.328722 0.10166328
0.87379235 -4.3314886 0.10166328
0.85898477 -4.3242569 0.10143117
0.8465597 -4.3368931 0.10166328
0.83406019 -4.349494 0.10189538
0.82115144 -4.3519497 0.10189538
0.80823553 -4.3543668 0.10189538
0.79275405 -4.3470502 0.10166328
0.77732652 -4.3396792 0.10143117
0.76466548 -4.3520789 0.10166328
0.75098926 -4.3544598 0.10166328
0.73563319 -4.346941 0.10143117
0.72273248 -4.3491044 0.10143117
0.71067798 -4.3612204 0.10166328
0.69697326 -4.3634315 0.10166328
0.68481183 -4.3754759 0.10189538
0.67106247 -4.3776054 0.10189538
0.65879458 -4.3895783 0.1021275
0.64645803 -4.4015164 0.1023596
0.63262707 -4.4035258 0.1023596
0.62018472 -4.4153914 0.10259172
0.60708141 -4.417212 0.10259172
0.59320134 -4.4190974 0.10259172
0.58061856 -4.430851 0.10282382
0.56796783 -4.4425693 0.10305593
0.55524909 -4.4542513 0.10328803
0.54125291 -4.4559741 0.10328803
0.52842993 -4.4675803 0.10352015
0.51553935 -4.4791493 0.10375225
0.50258183 -4.4906816 0.10398436
0.48955637 -4.5021763 0.10421646
0.47962466 -4.5434585 0.1051449
0.46841595 -4.5747781 0.10584123
2.1322718 -3.9584019 0.81230754
2.0781765 -3.8869476 0.79616904
2.0613544 -3.8847611 0.79437584
2.0445669 -3.8825076 0.79258269
2.0323596 -3.8889117 0.79258269
2.0201321 -3.8952773 0.79258269
2.0033939 -3.8928511 0.79078948
1.9911543 -3.8991258 0.79078948
1.9744594 -3.8965812 0.78899634
1.9578 -3.8939695 0.78720313
1.9455571 -3.9001009 0.78720313
1.9289423 -3.8973715 0.78540999
1.912364 -3.8945756 0.78361678
1.8958223 -3.8917146 0.78182369
1.8835868 -3.8976514 0.78182369
1.8713326 -3.9035497 0.78182369
1.8548464 -3.9005191 0.78003043
1.8383975 -3.897424 0.77823722
1.8261443 -3.9031801 0.77823722
1.8138732 -3.9088979 0.77823722
1.8022674 -3.9142625 0.77823722
1.7858865 -3.9109511 0.77644414
1.7735912 -3.9165423 0.77644414
1.7572594 -3.913115 0.77465087
1.7489479 -3.9276087 0.77644414
1.7359136 -3.933387 0.77644414
1.7242355 -3.9385202 0.77644414
1.7118539 -3.9439175 0.77644414
1.695578 -3.9402342 0.77465087
1.6870399 -3.9545956 0.77644414
1.6707875 -3.95081 0.77465087
1.6621592 -3.9651175 0.77644414
1.6496942 -3.9703197 0.77644414
1.6372129 -3.9754827 0.77644414
1.6247154 -3.9806066 0.77644414
1.612202 -3.9856911 0.77644414
1.5989765 -3.9910154 0.77644414
1.5878249 -3.995465 0.77644414
1.575265 -4.0004334 0.77644414
1.5626895 -4.005363 0.77644414
1.5536337 -4.019433 0.77823722
1.5374924 -4.0151024 0.77644414
1.5283483 -4.0291152 0.77823722
1.5122344 -4.0246835 0.77644414
1.4995831 -4.0294142 0.77644414
1.4869175 -4.0341053 0.77644414
1.4742366 -4.0387568 0.77644414
1.4615412 -4.0433683 0.77644414
1.4488314 -4.0479398 0.77644414
1.432833 -4.0431943 0.77465087
1.4168788 -4.0383887 0.77285779
1.4041848 -4.04282 0.77285779
1.3882903 -4.0379038 0.77106458
1.3724406 -4.032928 0.76927143
1.362892 -4.0465469 0.77106458
1.3439752 -4.0321341 0.76747823
1.3313012 -4.0363364 0.76747823
1.3162777 -4.0309134 0.76568508
1.3005954 -4.0256629 0.76389188
1.2849592 -4.0203543 0.76209873
1.2693691 -4.014987 0.76030552
1.2531255 -4.0097809 0.75851238
1.241223 -4.0134811 0.75851238
1.2257432 -4.0079489 0.75671917
1.2074753 -3.992939 0.75313282
1.1921196 -3.9872835 0.75133973
1.1795872 -3.991009 0.75133973
1.164297 -3.9852481 0.74954647
1.1517712 -3.9888861 0.74954647
1.1392341 -3.9924848 0.74954647
1.1266856 -3.9960442 0.74954647
1.1141261 -3.9995639 0.74954647
1.0989581 -3.9935558 0.74775338
1.0889742 -4.0064855 0.74954647
1.0763822 -4.0098867 0.74954647
1.0612714 -4.003736 0.74775338
1.0511662 -4.0165706 0.74954647
1.0360949 -4.010325 0.74775338
1.0234909 -4.0135598 0.74775338
1.0108769 -4.0167556 0.74775338
1.0006112 -4.0294623 0.74954647
0.98561907 -4.0230279 0.74775338
0.9706772 -4.0165386 0.74596018
0.95805407 -4.019568 0.74596018
0.94318342 -4.0129786 0.74416703
0.93057162 -4.0159216 0.74416703
0.91647255 -4.0090714 0.74237382
0.90387315 -4.0119309 0.74237382
0.89126486 -4.0147505 0.74237382
0.87655872 -4.0079174 0.74058068
0.86602193 -4.0202713 0.74237382
0.85338759 -4.0229721 0.74237382
0.84074485 -4.0256333 0.74237382
0.8261258 -4.0186157 0.74058068
0.81349683 -4.0211916 0.74058068
0.79895234 -4.0140758 0.73878747
0.78891784 -4.0260859 0.74058068
0.77556235 -4.0286798 0.74058068
0.76360577 -4.0309629 0.74058068
0.75093836 -4.0333424 0.74058068
0.73826355 -4.0356812 0.74058068
0.72558141 -4.0379806 0.74058068
0.71289217 -4.0402403 0.74058068
0.70019585 -4.04246 0.74058068
0.68749261 -4.0446396 0.74058068
0.67317748 -4.0370731 0.73878747
0.6636405 -4.0585904 0.74237382
0.64934278 -4.0509396 0.74058068
0.63812667 -4.0626802 0.74237382
0.62536025 -4.0646648 0.74237382
0.61258763 -4.0666094 0.74237382
0.60123086 -4.0782485 0.74416703
0.58980691 -4.0898561 0.74596018
0.57766962 -4.091588 0.74596018
0.56747621 -4.1128774 0.74954647
0.55585355 -4.1243916 0.75133973
0.54416412 -4.1358728 0.75313282
0.53364784 -4.1570807 0.75671917
0.5230037 -4.1782637 0.76030552
0.51341021 -4.2091875 0.76568508
0.50133187 -4.2205501 0.76747823
0.49030435 -4.2416525 0.77106458
0.48023555 -4.2725053 0.77644414
0.46997827 -4.3033366 0.78182369
0.46055633 -4.3439293 0.78899634
0.44988972 -4.3747172 0.79437584
0.44076782 -4.4151945 0.80154854
1.0620239 -4.3926773 0.07896857
1.0412723 -4.3668122 0.078439757
1.0206939 -4.3408604 0.077910952
1.0025432 -4.3245635 0.077558413
0.98895222 -4.327692 0.077558413
0.97315842 -4.321022 0.07738214
0.95957869 -4.3240581 0.07738214
0.94598955 -4.3270512 0.07738214
0.93239105 -4.3300018 0.07738214
0.91671312 -4.3231282 0.077205881
0.90312713 -4.3259869 0.077205881
0.89154088 -4.3385973 0.07738214
0.87790692 -4.3413763 0.07738214
0.86307269 -4.3341556 0.077205881
0.85137033 -4.3466582 0.07738214
0.83582348 -4.3394928 0.077205881
0.82218647 -4.3420973 0.077205881
0.8085413 -4.3446589 0.077205881
0.7930935 -4.3373413 0.077029608
0.7777003 -4.3299699 0.076853342
0.76582623 -4.3422389 0.077029608
0.75388277 -4.354476 0.077205881
0.74186987 -4.3666806 0.07738214
0.72726846 -4.3590002 0.077205881
0.71357065 -4.3612633 0.077205881
0.7014454 -4.3733563 0.07738214
0.68770319 -4.3755383 0.07738214
0.67395365 -4.377677 0.07738214
0.66168398 -4.3896604 0.077558413
0.64934558 -4.4016089 0.077734679
0.63474554 -4.403738 0.077734679
0.62307 -4.415503 0.077910952
0.60860193 -4.4074273 0.077734679
0.59531444 -4.4193311 0.077910952
0.58142775 -4.4211793 0.077910952
0.57007277 -4.4428196 0.078263491
0.55611241 -4.4445882 0.078263491
0.54335296 -4.4562387 0.078439757
0.52935058 -4.4579239 0.078439757
0.51763099 -4.4794302 0.078792296
0.50578141 -4.5009069 0.079144835
0.4945915 -4.5222669 0.079497367
0.48143402 -4.5337415 0.07967364
0.47127175 -4.5750165 0.080378719
1.0534195 -4.415359 0.053405821
1.0327082 -4.3894377 0.05304978
1.0151813 -4.3729963 0.05281242
0.99700069 -4.3566642 0.052575063
0.97893274 -4.3402605 0.052337702
0.96313524 -4.3335514 0.052219026
0.94738942 -4.3267846 0.052100345
0.93169576 -4.319963 0.051981669
0.91811961 -4.3228688 0.051981669
0.90249974 -4.3159413 0.051862985
0.89094025 -4.3285518 0.051981669
0.87536424 -4.3215265 0.051862985
0.86253828 -4.3241048 0.051862985
0.84779 -4.3168311 0.051744308
0.83347005 -4.3196187 0.051744308
0.82174683 -4.3320417 0.051862985
0.80813324 -4.3346024 0.051862985
0.79451168 -4.3371196 0.051862985
0.78264105 -4.3494377 0.051981669
0.76897299 -4.3518753 0.051981669
0.75360054 -4.3444147 0.051862985
0.73661673 -4.3270421 0.051625628
0.72465479 -4.3391995 0.051744308
0.70941532 -4.3315845 0.051625628
0.69580376 -4.3337922 0.051625628
0.68372715 -4.3458366 0.051744308
0.67158169 -4.3578472 0.051862985
0.65788776 -4.3599358 0.051862985
0.64418739 -4.3619809 0.051862985
0.63408101 -4.3836689 0.052100345
0.62169439 -4.3955421 0.052219026
0.60923934 -4.4073801 0.052337702
0.59671611 -4.4191837 0.052456386
0.58282989 -4.4210362 0.052456386
0.57146519 -4.4426837 0.052693743
0.55750525 -4.4444571 0.052693743
0.54474109 -4.4561133 0.05281242
0.53190923 -4.4677339 0.052931104
0.51900965 -4.4793167 0.05304978
0.50715023 -4.5008006 0.053287141
0.49516094 -4.522254 0.053524498
0.48304185 -4.5436764 0.053761858
0.47158992 -4.5649843 0.053999215
1.0561844 -4.534452 -0.18621437
1.007719 -4.4533134 -0.1825868
0.98935068 -4.4369578 -0.1817807
0.96893924 -4.4107747 -0.18057151
0.95295238 -4.4040332 -0.18016845
0.93911201 -4.4070053 -0.18016845
0.92319864 -4.4001579 -0.17976539
0.9093706 -4.4030361 -0.17976539
0.8915289 -4.3862929 -0.17895927
0.88048398 -4.3987141 -0.17936233
0.86201078 -4.3820062 -0.1785562
0.85015005 -4.3945007 -0.17895927
0.83634013 -4.39715 -0.17895927
0.82067418 -4.389936 -0.1785562
0.80687875 -4.3924923 -0.1785562
0.79307532 -4.3950057 -0.1785562
0.78101981 -4.4073119 -0.17895927
0.7696656 -4.4194512 -0.17936233
0.74729997 -4.372613 -0.17734703
0.73855311 -4.4044957 -0.1785562
0.72307932 -4.3969369 -0.17815314
0.70926237 -4.3991866 -0.17815314
0.69543839 -4.4013934 -0.17815314
0.68468893 -4.4233012 -0.17895927
0.67229897 -4.435307 -0.17936233
0.65836173 -4.4373975 -0.17936233
0.64297044 -4.4295578 -0.17895927
0.6318844 -4.4513373 -0.17976539
0.62006152 -4.4630876 -0.18016845
0.60739332 -4.4749131 -0.18057151
0.59200698 -4.4668956 -0.18016845
0.57848293 -4.4787421 -0.18057151
0.56645453 -4.4903507 -0.18097457
0.55357641 -4.5020237 -0.18137763
0.5394302 -4.5037408 -0.18137763
0.52644777 -4.515336 -0.1817807
0.51339793 -4.526895 -0.18218376
0.50028056 -4.5384154 -0.1825868
0.48494461 -4.5300312 -0.18218376
0.47175512 -4.5414691 -0.1825868
0.45849857 -4.5528693 -0.18298988
0.44812095 -4.5940614 -0.18460213
1.00541 -4.4734325 -0.2111616
0.98702383 -4.4570651 -0.21023342
0.96875042 -4.4406261 -0.20930524
0.95269257 -4.4338827 -0.20884116
0.93875843 -4.4368539 -0.20884116
0.9227739 -4.4300022 -0.20837706
0.90684181 -4.4230947 -0.20791298
0.89096218 -4.4161305 -0.20744887
0.87785548 -4.4187546 -0.20744887
0.86396927 -4.4214907 -0.20744887
0.84930211 -4.4243317 -0.20744887
0.83354217 -4.4171629 -0.20698479
0.82225984 -4.4294372 -0.20744887
0.80654395 -4.4221721 -0.20698479
0.7926473 -4.424684 -0.20698479
0.7804774 -4.4369898 -0.20744887
0.7640574 -4.4297104 -0.20698479
0.75180829 -4.4419374 -0.20744887
0.73862565 -4.4441485 -0.20744887
0.72143859 -4.4267302 -0.20652069
0.71068782 -4.4487014 -0.20744887
0.69670832 -4.4509125 -0.20744887
0.6842398 -4.4629526 -0.20791298
0.67021567 -4.4650803 -0.20791298
0.65618485 -4.4671636 -0.20791298
0.64214766 -4.469203 -0.20791298
0.62949771 -4.4810896 -0.20837706
0.61619943 -4.4829378 -0.20837706
0.60344607 -4.4947515 -0.20884116
0.59062451 -4.5065289 -0.20930524
0.57646394 -4.5083623 -0.20930524
0.56353754 -4.5200629 -0.20976934
0.54933459 -4.521811 -0.20976934
0.53512615 -4.5235147 -0.20976934
0.52205884 -4.5350966 -0.21023342
0.50892472 -4.5466409 -0.21069752
0.4957225 -4.5581474 -0.2111616
0.48325017 -4.5695319 -0.21162571
0.46911639 -4.5810461 -0.21208979
0.45769349 -4.6123171 -0.21348207
1.0222291 -4.5719781 -0.64623755
1.0014346 -4.5461564 -0.64210379
0.9829241 -4.5299263 -0.63934803
0.96452558 -4.5136247 -0.63659221
0.94829005 -4.5069432 -0.63521433
0.92806518 -4.4808106 -0.63108057
0.9119938 -4.4740014 -0.62970263
0.89597505 -4.4671354 -0.62832475
0.88078576 -4.4600596 -0.62694687
0.86409289 -4.4532351 -0.62556899
0.84823054 -4.4462004 -0.62419105
0.83242095 -4.4391108 -0.62281317
0.81847095 -4.4417043 -0.62281317
0.80273682 -4.4345093 -0.62143523
0.79054689 -4.4467587 -0.62281317
0.77485824 -4.4394655 -0.62143523
0.76168287 -4.4417448 -0.62143523
0.74606979 -4.4343505 -0.62005734
0.73375964 -4.4464431 -0.62143523
0.71978712 -4.4487262 -0.62143523
0.70580745 -4.4509654 -0.62143523
0.69335324 -4.4629464 -0.62281317
0.67782742 -4.4553123 -0.62143523
0.66529816 -4.4672146 -0.62281317
0.65126073 -4.4692826 -0.62281317
0.63721687 -4.4713068 -0.62281317
0.62316668 -4.4732866 -0.62281317
0.61259025 -4.4947405 -0.62556899
0.59846663 -4.4966426 -0.62556899
0.58433706 -4.4985008 -0.62556899
0.56941605 -4.5004139 -0.62556899
0.55728662 -4.5119114 -0.62694687
0.5431093 -4.5136399 -0.62694687
0.53009081 -4.5251603 -0.62832475
0.51473868 -4.5169635 -0.62694687
0.50164807 -4.5284014 -0.62832475
0.48849055 -4.5398016 -0.62970263
0.47422594 -4.5413136 -0.62970263
0.4609662 -4.5526342 -0.63108057
0.44763994 -4.5639157 -0.63245845
0.43424737 -4.5751591 -0.63383639
0.42170519 -4.5962248 -0.63659221
1.0735931 -4.5588512 -0.2433622
1.0160115 -4.4389462 -0.23655853
0.99328607 -4.4031467 -0.23446508
0.98161137 -4.4159946 -0.23498844
0.96346831 -4.3995447 -0.23394172
0.94754016 -4.3927875 -0.23341836
0.93373513 -4.3957424 -0.23341836
0.91584003 -4.3791032 -0.23237164
0.90207815 -4.3819585 -0.23237164
0.88632834 -4.3749824 -0.23184828
0.87257951 -4.3777452 -0.23184828
0.85574847 -4.3607149 -0.23080155
0.84582138 -4.3829937 -0.23184828
0.83019012 -4.3758178 -0.23132493
0.81643903 -4.3784041 -0.23132493
0.80191505 -4.3810878 -0.23132493
0.78891271 -4.3834476 -0.23132493
0.77513778 -4.3859043 -0.23132493
0.76305842 -4.3981576 -0.23184828
0.74589288 -4.3808427 -0.23080155
0.73540902 -4.4028654 -0.23184828
0.72234237 -4.4050279 -0.23184828
0.70691895 -4.3974152 -0.23132493
0.69465065 -4.4094796 -0.23184828
0.68002433 -4.4117589 -0.23184828
0.66841966 -4.4236321 -0.23237164
0.65597618 -4.4355893 -0.232895
0.64126348 -4.4377403 -0.232895
0.62731874 -4.439733 -0.232895
0.61550713 -4.4514675 -0.23341836
0.60285223 -4.4632759 -0.23394172
0.5901292 -4.4750495 -0.23446508
0.57479686 -4.4669757 -0.23394172
0.56200016 -4.4786687 -0.23446508
0.54913557 -4.490325 -0.23498844
0.53384888 -4.4821115 -0.23446508
0.52205741 -4.5036073 -0.23551181
0.50902176 -4.5151486 -0.23603515
0.49483451 -4.5167255 -0.23603515
0.48353902 -4.5380349 -0.23708187
0.47132605 -4.5593991 -0.23812859
0.45917469 -4.5907483 -0.23969868
1.0705338 -4.6570287 -0.44795504
1.025737 -4.5242915 -0.43477991
1.0071552 -4.5080643 -0.43289775
0.98438215 -4.4723244 -0.42913342
0.96396446 -4.4462137 -0.42631015
0.94790131 -4.4394865 -0.42536908
0.93188983 -4.4327021 -0.42442799
0.91390133 -4.4161143 -0.42254582
0.90002316 -4.4189639 -0.42254582
0.88416839 -4.4120107 -0.42160478
0.86836612 -4.4050007 -0.42066365
0.85720074 -4.4173293 -0.42160478
0.84067166 -4.4103699 -0.42066365
0.82681191 -4.4129891 -0.42066365
0.81112981 -4.4057765 -0.41972262
0.79728466 -4.4083028 -0.41972262
0.78343165 -4.4107857 -0.41972262
0.76957089 -4.4132252 -0.41972262
0.75401133 -4.4058099 -0.41878152
0.74259794 -4.4178438 -0.41972262
0.72871518 -4.420155 -0.41972262
0.71482527 -4.4224224 -0.41972262
0.70092833 -4.4246464 -0.41972262
0.68856287 -4.4366627 -0.42066365
0.67612892 -4.4486446 -0.42160478
0.66214979 -4.450747 -0.42160478
0.64816409 -4.452805 -0.42160478
0.63417196 -4.4548197 -0.42160478
0.62017363 -4.45679 -0.42160478
0.60616916 -4.4587159 -0.42160478
0.59293735 -4.460495 -0.42160478
0.5802139 -4.4722071 -0.42254582
0.56742281 -4.4838834 -0.42348692
0.55255038 -4.4857402 -0.42348692
0.54163766 -4.5071263 -0.42536908
0.52630693 -4.4989185 -0.42442799
0.51330799 -4.5104403 -0.42536908
0.49913546 -4.5120306 -0.42536908
0.48495805 -4.5135765 -0.42536908
0.47181991 -4.5249782 -0.42631015
0.45861498 -4.5363421 -0.42725125
0.44534379 -4.5476675 -0.42819232
0.43295619 -4.5688643 -0.43007448
0.42135936 -4.5999413 -0.43289775
1.0229099 -4.4458995 -0.26155415
1.0067412 -4.4393525 -0.26097679
0.99062365 -4.4327478 -0.2603994
0.9745577 -4.4260859 -0.25982201
0.95643866 -4.4096079 -0.25866726
0.94258076 -4.412591 -0.25866726
0.92462707 -4.3959861 -0.25751248
0.90678698 -4.3793125 -0.25635773
0.8930245 -4.3821397 -0.25635773
0.88001865 -4.3847699 -0.25635773
0.86163265 -4.3680706 -0.25520298
0.85055983 -4.3804102 -0.25578034
0.8367942 -4.3830605 -0.25578034
0.8248499 -4.3954821 -0.25635773
0.811037 -4.3980517 -0.25635773
0.79721612 -4.400578 -0.25635773
0.78338736 -4.4030609 -0.25635773
0.76955086 -4.4055004 -0.25635773
0.75235695 -4.3882127 -0.25520298
0.74185586 -4.4102483 -0.25635773
0.72638357 -4.4027052 -0.25578034
0.7078014 -4.3753943 -0.2540482
0.69560355 -4.3874578 -0.25462556
0.68637782 -4.4192224 -0.25635773
0.67398041 -4.4312282 -0.25693509
0.66005594 -4.4333239 -0.25693509
0.6454702 -4.4253826 -0.25635773
0.63156432 -4.4273887 -0.25635773
0.61765212 -4.4293509 -0.25635773
0.60774153 -4.4609494 -0.25808987
0.59241927 -4.4529395 -0.25751248
0.57970071 -4.4646802 -0.25808987
0.56567162 -4.4664793 -0.25808987
0.55405992 -4.4880533 -0.25924462
0.54113793 -4.4996853 -0.25982201
0.52814823 -4.5112801 -0.2603994
0.51509106 -4.5228376 -0.26097679
0.50087959 -4.5244336 -0.26097679
0.48666319 -4.5259848 -0.26097679
0.47528479 -4.5472698 -0.26213154
0.46398175 -4.5785408 -0.26386368
1.0457667 -4.5617642 -0.29683593
1.0159535 -4.4969058 -0.2923674
0.99091905 -4.4513826 -0.2891756
0.97692978 -4.4544735 -0.2891756
0.95657337 -4.4282651 -0.28726056
0.95101088 -4.470283 -0.289814
0.92873102 -4.4341879 -0.28726056
0.91276884 -4.4273119 -0.2866222
0.90284842 -4.4497132 -0.2878989
0.88296771 -4.4231758 -0.28598386
0.8651976 -4.4063473 -0.28470713
0.85515875 -4.4286366 -0.28598386
0.84124154 -4.4313011 -0.28598386
0.82731605 -4.4339218 -0.28598386
0.80975884 -4.4168715 -0.28470713
0.79409784 -4.409574 -0.28406876
0.78199095 -4.4218721 -0.28470713
0.76886773 -4.4241729 -0.28470713
0.75665498 -4.4364018 -0.28534546
0.73939562 -4.4190755 -0.28406876
0.72550905 -4.4213767 -0.28406876
0.71321261 -4.4334855 -0.28470713
0.7024135 -4.4554162 -0.28598386
0.6884129 -4.4576006 -0.28598386
0.67440557 -4.4597416 -0.28598386
0.66039157 -4.4618382 -0.28598386
0.64637101 -4.4638906 -0.28598386
0.63375539 -4.4757786 -0.2866222
0.62047285 -4.4776392 -0.2866222
0.60775381 -4.4894543 -0.28726056
0.59232688 -4.4814491 -0.2866222
0.58003712 -4.5031815 -0.2878989
0.56793064 -4.5147829 -0.28853726
0.55251765 -4.5066404 -0.2878989
0.53955233 -4.5182619 -0.28853726
0.52535516 -4.5199347 -0.28853726
0.51115274 -4.5215631 -0.28853726
0.50025141 -4.5529017 -0.29045233
0.48487532 -4.5445294 -0.289814
0.47163552 -4.5559549 -0.29045233
0.45832878 -4.5673432 -0.2910907
0.44495505 -4.578692 -0.29172903
1.0309545 -4.4407945 -0.078884877
1.0192405 -4.4537549 -0.0790594
0.99197316 -4.3984303 -0.07801225
0.97378802 -4.38201 -0.077663206
0.95786637 -4.3752832 -0.077488683
0.95047545 -4.4075842 -0.07801225
0.93035686 -4.3812151 -0.077488683
0.91864651 -4.3939004 -0.077663206
0.89875549 -4.367393 -0.077139638
0.88503051 -4.3701949 -0.077139638
0.87129676 -4.3729539 -0.077139638
0.85755503 -4.3756695 -0.077139638
0.84380418 -4.3783417 -0.077139638
0.83004504 -4.380971 -0.077139638
0.81812036 -4.393384 -0.077314161
0.79887879 -4.3664341 -0.076790594
0.78871906 -4.3885994 -0.077139638
0.77317798 -4.3812113 -0.076965109
0.76017541 -4.3834858 -0.076965109
0.74809039 -4.3957071 -0.077139638
0.73261827 -4.3881755 -0.076965109
0.7188288 -4.3904557 -0.076965109
0.70662916 -4.4025626 -0.077139638
0.69122875 -4.3948855 -0.076965109
0.68202281 -4.4266753 -0.077488683
0.6651051 -4.4090266 -0.077139638
0.65419585 -4.4308734 -0.077488683
0.63883096 -4.4230123 -0.077314161
0.62493253 -4.4249978 -0.077314161
0.61318189 -4.4367352 -0.077488683
0.60059041 -4.4485464 -0.077663206
0.58793086 -4.4603224 -0.077837735
0.57313651 -4.4622478 -0.077837735
0.55989438 -4.4639287 -0.077837735
0.54709315 -4.4755883 -0.07801225
0.53541851 -4.4971385 -0.078361303
0.52128768 -4.4987984 -0.078361303
0.50828362 -4.5103483 -0.078535832
0.49521205 -4.5218606 -0.078710347
0.48207319 -4.5333352 -0.078884877
0.46886709 -4.5447717 -0.0790594
0.45760778 -4.5760655 -0.079582974
0.44518074 -4.5973821 -0.079932019
1.0686114 -4.5750055 -0.33145466
1.0044191 -4.4873638 -0.32435712
0.9860124 -4.4710178 -0.32293761
0.97196144 -4.4740934 -0.32293761
0.95581001 -4.4673719 -0.32222787
0.93765014 -4.4508328 -0.32080838
0.91960365 -4.4342246 -0.31938887
0.90566862 -4.4370918 -0.31938887
0.88975638 -4.4301362 -0.31867909
0.87660813 -4.4327564 -0.31867909
0.86190355 -4.4356394 -0.31867909
0.84531593 -4.4286761 -0.31796935
0.83217227 -4.4311647 -0.31796935
0.81902063 -4.4336143 -0.31796935
0.80508798 -4.4361653 -0.31796935
0.78939295 -4.4288535 -0.31725958
0.77470243 -4.4314466 -0.31725958
0.76246774 -4.4436893 -0.31796935
0.74684364 -4.4362268 -0.31725958
0.73530889 -4.4482636 -0.31796935
0.72133058 -4.450552 -0.31796935
0.70734525 -4.452796 -0.31796935
0.69335288 -4.4549961 -0.31796935
0.67935365 -4.4571524 -0.31796935
0.6668238 -4.4691296 -0.31867909
0.65278029 -4.4712024 -0.31867909
0.63873041 -4.4732313 -0.31867909
0.6246742 -4.4752154 -0.31867909
0.61274713 -4.4869323 -0.31938887
0.59997064 -4.4987216 -0.32009861
0.5858345 -4.5005841 -0.32009861
0.57295316 -4.5122972 -0.32080838
0.55877459 -4.5140753 -0.32080838
0.54578871 -4.5257106 -0.32151809
0.53156811 -4.5274029 -0.32151809
0.51734221 -4.5290504 -0.32151809
0.50532115 -4.5504804 -0.32293761
0.49209672 -4.5619621 -0.32364738
0.47880509 -4.5734057 -0.32435712
0.46544644 -4.5848107 -0.32506689
0.45300114 -4.6061034 -0.32648638
1.0638479 -4.4945021 -0.10630436
0.98839897 -4.4195409 -0.10421541
0.97235447 -4.4128623 -0.10398331
0.95423704 -4.3963575 -0.1035191
0.94042075 -4.3993335 -0.1035191
0.92659575 -4.4022665 -0.1035191
0.91072857 -4.3953667 -0.10328699
0.89491397 -4.3884115 -0.10305489
0.88112295 -4.3912015 -0.10305489
0.86614782 -4.3839893 -0.10282278
0.85351497 -4.3966508 -0.10305489
0.83893025 -4.399457 -0.10305489
0.82587332 -4.401927 -0.10305489
0.81099057 -4.3945274 -0.10282278
0.79718077 -4.3970532 -0.10282278
0.78336304 -4.3995361 -0.10282278
0.7687692 -4.4021096 -0.10282278
0.75493574 -4.4045029 -0.10282278
0.74109489 -4.4068532 -0.10282278
0.72801638 -4.4090323 -0.10282278
0.7141614 -4.4112978 -0.10282278
0.70029938 -4.4135199 -0.10282278
0.68797028 -4.4255762 -0.10305489
0.67557222 -4.4375982 -0.10328699
0.66162777 -4.4396987 -0.10328699
0.64767677 -4.4417553 -0.10328699
0.63230389 -4.4338717 -0.10305489
0.61975574 -4.4457374 -0.10328699
0.60791749 -4.4574618 -0.1035191
0.59523487 -4.4692583 -0.1037512
0.58119136 -4.4711065 -0.1037512
0.56966537 -4.4927449 -0.10421541
0.55554819 -4.4945126 -0.10421541
0.54262489 -4.5061607 -0.10444752
0.52963376 -4.5177722 -0.10467962
0.51543814 -4.5194135 -0.10467962
0.50234318 -4.5309467 -0.10491173
0.49025533 -4.5523815 -0.10537595
0.4769944 -4.5638413 -0.10560804
0.46467838 -4.5852094 -0.10607225
0.45419437 -4.6264434 -0.10700069
1.0174865 -4.5029998 -0.3505432
0.99900854 -4.4867077 -0.34901577
0.98064303 -4.4703441 -0.34748834
0.96659422 -4.4734025 -0.34748834
0.94839317 -4.4569106 -0.34596094
0.93234605 -4.4501085 -0.34519723
0.91635096 -4.4432492 -0.34443352
0.90040827 -4.4363341 -0.34366983
0.88451803 -4.4293623 -0.34290609
0.86868054 -4.4223347 -0.3421424
0.85555553 -4.4248929 -0.3421424
0.84165013 -4.4275589 -0.3421424
0.82773638 -4.430181 -0.3421424
0.80945164 -4.4132857 -0.34061497
0.79558289 -4.4158068 -0.34061497
0.78247702 -4.418148 -0.34061497
0.76859313 -4.4205842 -0.34061497
0.75637531 -4.4328065 -0.34137866
0.7408033 -4.4253263 -0.34061497
0.72689712 -4.4276319 -0.34061497
0.71533853 -4.4396133 -0.34137866
0.70293874 -4.4516883 -0.3421424
0.6851359 -4.4342856 -0.34061497
0.67120183 -4.4364161 -0.34061497
0.65949416 -4.4482517 -0.34137866
0.64473939 -4.4504142 -0.34137866
0.63214946 -4.4622908 -0.3421424
0.61812764 -4.4642549 -0.3421424
0.60487938 -4.4660687 -0.3421424
0.59214896 -4.4778323 -0.34290609
0.57807851 -4.4796705 -0.34290609
0.56524342 -4.4913578 -0.34366983
0.55355048 -4.5129056 -0.34519723
0.5381912 -4.5047212 -0.34443352
0.52403653 -4.5063901 -0.34443352
0.51099336 -4.5179224 -0.34519723
0.49788281 -4.5294166 -0.34596094
0.48681381 -4.5607033 -0.34825209
0.47430485 -4.5720453 -0.34901577
0.46013266 -4.5835147 -0.34977949
0.44876695 -4.6247134 -0.35283434
1.0487405 -4.4563279 -0.12993366
1.0118208 -4.4238486 -0.12878886
0.99352962 -4.4075012 -0.12821646
0.9753511 -4.3910828 -0.12764408
0.95728564 -4.3745942 -0.12707168
0.94353771 -4.3775797 -0.12707168
0.92770898 -4.3707433 -0.12678547
0.91397333 -4.3736362 -0.12678547
0.89821869 -4.3666945 -0.12649928
0.88251668 -4.3596964 -0.12621307
0.8688159 -4.3624473 -0.12621307
0.85586864 -4.365006 -0.12621307
0.84215134 -4.3676734 -0.12621307
0.82842571 -4.3702974 -0.12621307
0.81469196 -4.3728786 -0.12621307
0.802746 -4.3852496 -0.12649928
0.7889654 -4.3877501 -0.12649928
0.77344286 -4.3803625 -0.12621307
0.75967777 -4.3827705 -0.12621307
0.7459051 -4.3851357 -0.12621307
0.7321251 -4.3874574 -0.12621307
0.71910423 -4.3896103 -0.12621307
0.7068913 -4.4017181 -0.12649928
0.69460922 -4.4137917 -0.12678547
0.68073946 -4.4159522 -0.12678547
0.66835088 -4.4279537 -0.12707168
0.65297997 -4.4201422 -0.12678547
0.64051616 -4.432066 -0.12707168
0.62581581 -4.4341655 -0.12707168
0.61401963 -4.4459052 -0.12735787
0.60215998 -4.4576139 -0.12764408
0.5873751 -4.4595861 -0.12764408
0.57463211 -4.471324 -0.12793027
0.55934322 -4.4631886 -0.12764408
0.54773456 -4.4847693 -0.12821646
0.53481913 -4.4963942 -0.12850265
0.52069068 -4.4980521 -0.12850265
0.50878549 -4.5195327 -0.12907505
0.49350148 -4.5111723 -0.12878886
0.4822216 -4.5324969 -0.12936126
0.47104684 -4.5638199 -0.13021985
0.45670685 -4.5652771 -0.13021985
1.0266241 -4.5090079 -0.37371671
1.005941 -4.4830279 -0.37127942
0.98757172 -4.4666972 -0.36965457
0.9714247 -4.4600368 -0.36884215
0.95325023 -4.4435711 -0.3672173
0.93928564 -4.4465442 -0.3672173
0.92329395 -4.439712 -0.36640486
0.90735459 -4.4328241 -0.36559245
0.8941983 -4.4354968 -0.36559245
0.87910497 -4.4283519 -0.36478001
0.86441505 -4.4312425 -0.36478001
0.85235554 -4.4437275 -0.36559245
0.83655578 -4.4365864 -0.36478001
0.82080936 -4.4293904 -0.3639676
0.80511642 -4.4221392 -0.36315516
0.79296267 -4.4344606 -0.3639676
0.77902746 -4.4369297 -0.3639676
0.76508456 -4.4393554 -0.3639676
0.75113416 -4.4417367 -0.3639676
0.73717636 -4.4440746 -0.3639676
0.72479957 -4.4562082 -0.36478001
0.71079642 -4.4584632 -0.36478001
0.69678622 -4.4606743 -0.36478001
0.68276912 -4.462841 -0.36478001
0.66874534 -4.4649639 -0.36478001
0.65549475 -4.4669285 -0.36478001
0.64145827 -4.468966 -0.36478001
0.62878877 -4.4808311 -0.36559245
0.61470872 -4.4827843 -0.36559245
0.6032452 -4.5044541 -0.3672173
0.58909106 -4.5063272 -0.3672173
0.57493114 -4.5081553 -0.3672173
0.56198359 -4.5198312 -0.36802971
0.54896837 -4.5314708 -0.36884215
0.53588617 -4.5430722 -0.36965457
0.52048624 -4.5348306 -0.36884215
0.50733078 -4.54635 -0.36965457
0.49304548 -4.5479212 -0.36965457
0.48161528 -4.5691905 -0.37127942
0.46826041 -4.5805979 -0.37209186
0.45775121 -4.6217241 -0.37534159
1.0296636 -4.4287329 -0.15739672
1.0046406 -4.3832259 -0.15565176
0.98867553 -4.3766093 -0.15530275
0.97708082 -4.3894515 -0.15565176
0.95902812 -4.3729706 -0.15495376
0.94318694 -4.3661904 -0.15460476
0.92739797 -4.3593545 -0.15425578
0.91166115 -4.3524623 -0.15390678
0.89798295 -4.3553047 -0.15390678
0.87639445 -4.3189173 -0.15251079
0.86941522 -4.3509068 -0.15355779
0.85458434 -4.3436584 -0.15320879
0.84017593 -4.3464684 -0.15320879
0.82837081 -4.3589072 -0.15355779
0.81284982 -4.3516617 -0.15320879
0.80096674 -4.3640261 -0.15355779
0.78373045 -4.3468456 -0.15285979
0.77526134 -4.3788152 -0.15390678
0.75300437 -4.3319874 -0.15216181
0.73939133 -4.334332 -0.15216181
0.72904581 -4.3563509 -0.15285979
0.71696275 -4.3684835 -0.15320879
0.70638615 -4.3904524 -0.15390678
0.69258964 -4.3926497 -0.15390678
0.67878628 -4.394804 -0.15390678
0.66497624 -4.396915 -0.15390678
0.65261102 -4.4088702 -0.15425578
0.6395269 -4.4107871 -0.15425578
0.62566686 -4.4127746 -0.15425578
0.61316037 -4.4246192 -0.15460476
0.6005857 -4.436429 -0.15495376
0.58664531 -4.4382939 -0.15495376
0.57269907 -4.440115 -0.15495376
0.56121773 -4.4617267 -0.15565176
0.54719806 -4.4634681 -0.15565176
0.53317297 -4.4651651 -0.15565176
0.5202843 -4.4767461 -0.15600075
0.50843871 -4.4982228 -0.15669873
0.49538395 -4.5097337 -0.15704773
0.48121378 -4.5112677 -0.15704773
0.46986386 -4.5325589 -0.15774572
0.46055898 -4.5837379 -0.15949069
