# .PCD v0.7 - Point Cloud Data file format
VERSION 0.7
FIELDS x y z
SIZE 4 4 4
TYPE F F F
COUNT 1 1 1
WIDTH 65
HEIGHT 1
VIEWPOINT 0 0 0 1 0 0 0
POINTS 65
DATA ascii
-29.650105 -7.3978572 0.17578161
-29.673199 -7.3046679 0.17578161
-29.715435 -7.2161379 0.17589681
-29.747684 -7.1250758 0.1759544
-29.847773 -7.049993 0.17641516
-29.680809 -7.6463985 0.0053424523
-29.562084 -7.4235373 0.0053127818
-29.614382 -7.337842 0.0053180181
-29.627573 -7.2423978 0.0053162724
-29.689066 -7.1586595 0.005323254
-29.75032 -7.0746131 0.0053302352
-29.55364 -7.4965057 -0.14348587
-29.538242 -7.3939166 -0.14329739
-29.571033 -7.3034763 -0.14334451
-29.613262 -7.2152772 -0.14343874
-29.674679 -7.1315494 -0.14362724
-29.745586 -7.0498199 -0.14386284
-29.513737 -7.484633 -0.31313774
-29.517704 -7.3870201 -0.31293181
-29.50193 -7.2846732 -0.31251991
-29.563536 -7.2014103 -0.31293181
-29.634626 -7.1201735 -0.31344664
-29.705502 -7.0385613 -0.31396154
-29.65461 -7.6138282 0.89681709
-29.5952 -7.4006605 0.89359218
-29.705643 -7.3292093 0.89623076
-29.738234 -7.2382197 0.89652395
-29.721949 -7.1354141 0.89535123
-29.753944 -7.044313 0.89564437
-29.824596 -6.9621696 0.89711022
-29.756954 -7.6383109 0.71233928
-29.680748 -7.3267813 0.70885766
-29.703619 -7.2335043 0.70885766
-29.726198 -7.1401482 0.70885766
-29.788626 -7.0507531 0.70978612
-29.907984 -6.9798574 0.71210718
-29.684549 -7.3259544 0.53832591
-29.707418 -7.2326574 0.53832591
-29.768883 -7.148634 0.53903097
-29.83984 -7.0665984 0.53991228
-29.60705 -7.3984671 0.36173543
-29.610729 -7.3006291 0.36149806
-29.643234 -7.2099338 0.36161676
-29.694912 -7.1237602 0.36197278
-29.746338 -7.0373402 0.36232883
-29.875422 -6.9688182 0.36363429
-29.555559 -7.4290662 -0.53125125
-29.559345 -7.3313651 -0.53090221
-29.533674 -7.2265701 -0.53002954
-29.604826 -7.1454945 -0.53090221
-29.656307 -7.0594001 -0.53142577
-29.73674 -6.9799209 -0.53247291
-29.571213 -7.5576663 -0.70769
-29.478485 -7.4353843 -0.70490468
-29.519817 -7.3527222 -0.70536894
-29.523355 -7.2551699 -0.70490468
-29.536285 -7.1600313 -0.70467257
-29.578081 -7.0718522 -0.70513678
-29.640295 -6.9829001 -0.70606524
-29.45859 -7.3740478 -0.86832315
-29.471907 -7.2790642 -0.86803693
-29.475204 -7.1817122 -0.86746454
-29.536497 -7.0984144 -0.86860925
-29.578104 -7.010201 -0.86918169
-29.629185 -6.9240623 -0.8700403
