# .PCD v0.7 - Point Cloud Data file format
VERSION 0.7
FIELDS x y z
SIZE 4 4 4
TYPE F F F
COUNT 1 1 1
WIDTH 59
HEIGHT 1
VIEWPOINT 0 0 0 1 0 0 0
POINTS 59
DATA ascii
28.978813 35.258057 0.26263571
29.159319 35.238815 0.26321167
30.176828 35.100048 0.26637942
30.30003 35.020199 0.2664946
30.436174 34.95499 0.26672497
30.578783 34.896816 0.26701298
30.754389 34.875591 0.26758891
29.709038 33.477253 0.25756729
29.892071 33.260166 0.25733691
29.956167 33.121593 0.25699133
29.9995 32.960758 0.25647298
30.041094 32.787357 0.25589702
30.089741 32.633984 0.25543624
30.035694 32.370678 0.25411156
30.12359 32.261543 0.25399637
28.972248 35.394203 0.0079761548
29.194073 35.21146 0.0079761548
29.40064 35.234749 0.0080023343
29.568779 35.198315 0.0080162967
29.750219 35.189255 0.0080354949
29.886559 35.126072 0.0080424771
30.029276 35.069992 0.0080512036
29.721533 34.490643 0.0079395026
29.731468 34.283779 0.0079133222
29.733822 34.069656 0.0078853974
29.708746 33.825787 0.0078504905
29.642681 33.537472 0.0078051118
29.734602 33.429245 0.0078016217
29.072218 35.7379 -0.21690163
29.251665 35.500515 -0.21657178
29.331146 35.369946 -0.21633618
29.461077 35.287853 -0.21643043
29.558939 35.179802 -0.21633618
29.64348 35.056225 -0.21614768
29.701612 34.902004 -0.21577071
29.726545 34.709797 -0.21515813
29.796282 34.570774 -0.21487539
29.292269 35.58075 -0.47418591
29.371996 35.450058 -0.47367105
29.496027 35.372971 -0.47387698
29.613449 35.287777 -0.47397995
29.737064 35.209854 -0.47418591
29.970589 35.261009 -0.47614235
30.165722 35.265457 -0.47748101
30.468864 34.808174 1.3556333
30.604488 34.74229 1.3568059
30.628332 34.811562 1.0755882
30.371754 35.002937 0.81630224
30.521025 34.952541 0.81735992
30.637276 34.863998 0.81753618
30.8256 34.844582 0.81947511
30.17095 35.24675 0.55019867
30.229309 35.091194 0.54924917
30.326296 34.980946 0.54901183
30.468435 34.91032 0.54948658
30.610952 34.85199 0.55007994
30.760046 34.800591 0.55079204
30.915745 34.756081 0.55162281
31.131498 34.777981 0.55352169
