# .PCD v0.7 - Point Cloud Data file format
VERSION 0.7
FIELDS x y z
SIZE 4 4 4
TYPE F F F
COUNT 1 1 1
WIDTH 56
HEIGHT 1
VIEWPOINT 0 0 0 1 0 0 0
POINTS 56
DATA ascii
-10.679131 -18.220266 0.12141142
-10.946495 -18.550268 0.12383043
-10.934487 -18.266588 0.12239054
-10.562405 -18.335157 0.0036861352
-10.628816 -18.192579 0.003670427
-10.977417 -18.521175 0.0037507124
-10.927925 -18.306273 0.0037140604
-10.269653 -17.964891 0.82591945
-10.380913 -18.027775 0.8303147
-10.392357 -17.917294 0.82671851
-10.445475 -17.886379 0.82671851
-10.792038 -18.215776 0.84509897
-10.56332 -18.299736 -0.099379875
-10.627621 -18.285604 -0.09947411
-10.705225 -18.286644 -0.099662602
-10.978225 -18.485544 -0.10112338
-10.969504 -18.339405 -0.10051079
-10.650388 -18.317236 -0.2177857
-10.96051 -18.448122 -0.22056596
-10.997865 -18.37928 -0.22015406
-10.711484 -18.699764 0.63090897
-10.735225 -18.605404 0.62885666
-10.457249 -17.992477 0.60921407
-10.862945 -18.299019 0.62299323
-11.025722 -18.166336 0.6221137
-10.760468 -18.641371 0.49879998
-10.550943 -18.023094 0.4839451
-10.852827 -18.274504 0.49253306
-10.908699 -18.101282 0.48974779
-10.776815 -18.669409 0.37933117
-10.458434 -17.987225 0.36611098
-10.580586 -18.066433 0.36840245
-10.982773 -18.618681 0.38038877
-10.894156 -18.206135 0.37333801
-10.940975 -18.154692 0.37298545
-10.714005 -18.279661 0.25100735
-10.959544 -18.564463 0.25539851
-10.896088 -18.195028 0.25124472
-10.953928 -18.270168 -0.85771465
-11.170312 -18.361265 -0.86537284
-11.028735 -18.300611 -0.99083531
-11.143177 -18.359812 -0.99594027
-11.242473 -18.392902 -0.99965298
-10.930925 -18.282148 -1.1142324
-10.993459 -18.256273 -1.1147559
-11.139184 -18.23797 -1.117896
-10.691218 -18.314131 -0.36946744
-10.748701 -18.280453 -0.36946744
-11.080055 -18.444075 -0.37487769
-11.040399 -18.407049 -0.49740231
-11.124013 -18.415062 -0.49856281
-10.773519 -18.271523 -0.60616624
-10.851286 -18.271963 -0.60731101
-11.048416 -18.34041 -0.61189014
-11.131908 -18.348339 -0.61332119
-11.039458 -18.188633 -0.74161428
