# .PCD v0.7 - Point Cloud Data file format
VERSION 0.7
FIELDS x y z
SIZE 4 4 4
TYPE F F F
COUNT 1 1 1
WIDTH 225
HEIGHT 1
VIEWPOINT 0 0 0 1 0 0 0
POINTS 225
DATA ascii
-2.8093905 8.5075722 0.051375229
-2.7515335 8.4213219 0.050799273
-2.7312262 8.4489508 0.050914466
-2.7046709 8.457489 0.050914466
-2.6720421 8.4468803 0.050799273
-2.6410258 8.4461517 0.050741676
-2.6189165 8.4635019 0.050799273
-2.5923157 8.4716873 0.050799273
-2.5613077 8.4706669 0.050741676
-2.5375528 8.4882517 0.050799273
-2.5051947 8.477006 0.050684083
-2.4757421 8.4752369 0.050626487
-2.4518828 8.4925795 0.050684083
-2.801584 8.3986301 -0.99488336
-2.7720754 8.3979521 -0.99376172
-2.7426009 8.397171 -0.99264008
-3.261668 8.3666344 0.0015603242
-3.2090347 8.3869629 0.0015603242
-3.189764 8.4157038 0.0015638149
-3.1633084 8.425683 0.0015638149
-3.1318643 8.426754 0.0015620696
-3.098464 8.4177828 0.0015585789
-3.0685759 8.4180822 0.0015568336
-3.0421154 8.42768 0.0015568336
-3.0122554 8.4277802 0.0015550883
-2.9872367 8.4366808 0.0015550883
-2.9559367 8.4371023 0.0015533429
-2.929415 8.4463472 0.0015533429
-2.8996174 8.4460506 0.0015515976
-2.8730679 8.4551191 0.0015515976
-2.8386378 8.4456444 0.001548107
-2.8120923 8.4545202 0.001548107
-2.7823882 8.4538145 0.0015463616
-2.7558172 8.4625139 0.0015463616
-2.7261479 8.4616117 0.0015446163
-2.6995528 8.4701347 0.0015446163
-2.66992 8.469038 0.001542871
-2.6403229 8.4678373 0.0015411257
-2.6078086 8.4569798 0.001537635
-2.5841472 8.4746952 0.0015393803
-2.5546207 8.4731979 0.001537635
-2.5279899 8.4811811 0.001537635
-2.4970243 8.4799261 0.0015358897
-2.4703727 8.4877291 0.0015358897
-3.2059138 8.3773499 -0.042079762
-3.176038 8.3780298 -0.042032644
-3.1497033 8.3879652 -0.042032644
-3.1163666 8.3790722 -0.041938398
-3.0920162 8.3987455 -0.041985523
-3.0621932 8.3990221 -0.041938398
-3.0357907 8.4086008 -0.041938398
-3.005996 8.408679 -0.041891277
-2.9795632 8.4180813 -0.041891277
-2.9497988 8.417963 -0.041844156
-2.9167862 8.4082918 -0.04174991
-2.8871117 8.4079552 -0.041702788
-2.863898 8.4264526 -0.04174991
-2.8342261 8.4259291 -0.041702788
-2.804584 8.4253044 -0.041655671
-2.7749758 8.4245739 -0.041608546
-2.7484944 8.4332504 -0.041608546
-2.721988 8.441843 -0.041608546
-2.6954527 8.4503536 -0.041608546
-2.6658859 8.4492426 -0.041561425
-2.6363525 8.4480286 -0.0415143
-2.6083231 8.4567251 -0.0415143
-2.584657 8.4744434 -0.041561425
-2.5493662 8.4537973 -0.041420061
-2.5199389 8.4521818 -0.041372936
-2.4961994 8.4696484 -0.041420061
-2.4667828 8.4678478 -0.041372936
-2.442934 8.4851656 -0.041420061
-3.2346511 8.3548279 -0.091850996
-3.2012358 8.3462715 -0.091645047
-3.1856382 8.3843355 -0.091953963
-3.1522481 8.3755817 -0.091748022
-3.1224339 8.376071 -0.091645047
-3.0926454 8.3764563 -0.091542073
-3.0628879 8.3767376 -0.091439106
-3.0433526 8.4051275 -0.091645047
-3.010195 8.3958168 -0.091439106
-2.9771237 8.3863821 -0.091233157
-2.9459906 8.3867712 -0.091130182
-2.919627 8.3959846 -0.091130182
-2.8899884 8.3956594 -0.091027223
-2.8700354 8.4236307 -0.091233157
-2.8403692 8.4231281 -0.091130182
-2.8075731 8.4130363 -0.090924248
-2.7780001 8.4123173 -0.090821274
-2.7515571 8.4210033 -0.090821274
-2.7220192 8.4200897 -0.090718299
-2.692512 8.4190741 -0.090615332
-2.6660507 8.4274912 -0.090615332
-2.6365802 8.42628 -0.090512358
-2.6130469 8.4440756 -0.090615332
-2.5835845 8.4426804 -0.090512358
-2.5555732 8.4512014 -0.090512358
-2.5261528 8.449605 -0.090409383
-2.4967659 8.4479084 -0.090306409
-2.4674168 8.4461107 -0.090203442
-2.4436393 8.4634285 -0.090306409
-2.9908857 8.4485464 -0.35993382
-2.9610198 8.448473 -0.35953078
-2.9344625 8.4577341 -0.35953078
-2.8153017 8.456028 -0.35791853
-2.7824585 8.4458532 -0.35711241
-2.7559102 8.4545536 -0.35711241
-2.7324097 8.4726772 -0.35751548
-2.6936061 8.4431515 -0.35590324
-2.6640558 8.4420443 -0.35550016
-2.9553308 8.4589052 -0.41443366
-2.8956494 8.4584074 -0.41350549
-2.8658533 8.4580021 -0.41304138
-2.8080287 8.4668512 -0.41257727
-2.7720644 8.4471607 -0.41118503
-2.7782369 8.4179974 -1.2277136
-2.7456152 8.4078569 -1.2249577
-2.7191887 8.41644 -1.2249577
-2.8022542 8.413415 -0.46264985
-2.7726839 8.4126921 -0.46212649
-2.8050992 8.4150286 -0.8347398
-2.7723989 8.4048948 -0.83285761
-2.7459817 8.4135628 -0.83285761
-2.7808361 8.3963795 -0.50925112
-2.7575488 8.4145632 -0.50982857
-2.8353934 8.4378138 -0.56686085
-2.7823215 8.4554625 -0.56686085
-2.7588406 8.4736481 -0.56749916
-3.1842468 8.415966 -0.15637356
-3.1613073 8.4352884 -0.1565481
-3.1313052 8.4358072 -0.15637356
-3.104789 8.4456024 -0.15637356
-3.0733402 8.4464579 -0.15619904
-3.0400004 8.4372616 -0.15584998
-3.013478 8.4467707 -0.15584998
-2.9835923 8.4467707 -0.15567547
-2.9570401 8.4561033 -0.15567547
-2.9206309 8.4370108 -0.15515189
-2.8973567 8.4556017 -0.15532641
-2.8707795 8.4646626 -0.15532641
-2.8377969 8.4546862 -0.15497737
-2.8112228 8.4635601 -0.15497737
-2.7908742 8.4913425 -0.15532641
-2.7610872 8.4905615 -0.15515189
-2.7282624 8.4801626 -0.15480284
-2.7016089 8.4886913 -0.15480284
-2.6704376 8.4880676 -0.15462832
-2.6437595 8.4964151 -0.15462832
-2.6096916 8.4755611 -0.15410475
-2.5859716 8.4932804 -0.15427928
-2.5549057 8.4922361 -0.15410475
-2.5225019 8.4810572 -0.15375569
-2.4958444 8.4889402 -0.15375569
-2.4691644 8.4967384 -0.15375569
-2.4341598 8.4756298 -0.15323213
-2.40604 8.483655 -0.15323213
-2.78719 8.4287024 -0.62884116
-2.7700095 8.4658556 -0.63097042
-3.218436 8.3807812 -0.20750239
-3.1518238 8.4487534 -0.20843083
-3.1133935 8.4310265 -0.20773451
-3.0849273 8.4308386 -0.20750239
-3.0516093 8.4216928 -0.20703819
-3.0285158 8.4406462 -0.20727029
-2.9986365 8.4406996 -0.20703819
-2.9687843 8.4406481 -0.20680609
-2.9389641 8.4404917 -0.20657398
-2.9091721 8.4402323 -0.20634186
-2.8794134 8.4398699 -0.20610978
-2.8482108 8.4398994 -0.20587766
-2.8216808 8.4488068 -0.20587766
-2.7951252 8.4576292 -0.20587766
-2.7654307 8.4568672 -0.20564556
-2.7357707 8.4560013 -0.20541345
-2.7091908 8.4645548 -0.20541345
-2.6795669 8.4634943 -0.20518136
-2.6529639 8.4718704 -0.20518136
-2.6233768 8.4706135 -0.20494924
-2.593822 8.4692554 -0.20471713
-2.5672033 8.4773617 -0.20471713
-2.5405571 8.4853849 -0.20471713
-2.5095687 8.4841766 -0.20448503
-2.4829013 8.4920187 -0.20448503
-2.4562118 8.4997768 -0.20448503
-2.4267488 8.4978399 -0.20425293
-2.8177447 8.3622236 -0.67282909
-2.800916 8.3994141 -0.67512029
-2.7838831 8.4365788 -0.67741138
-2.769737 8.4831991 -0.68046623
-3.1695843 8.4407635 -0.2570053
-3.1186714 8.3850927 -0.25500193
-3.095768 8.4042292 -0.25528815
-3.0644591 8.405057 -0.25500193
-3.0346448 8.405241 -0.25471574
-3.0082252 8.4147329 -0.25471574
-2.97844 8.4147177 -0.25442952
-2.9486873 8.4145994 -0.25414336
-2.9222364 8.4238224 -0.25414336
-2.8892698 8.4140511 -0.25357094
-2.8628209 8.4230862 -0.25357094
-2.8331609 8.4225636 -0.25328475
-2.8003755 8.4124537 -0.25271237
-2.7676833 8.4022198 -0.25213996
-2.7505589 8.4393873 -0.25299856
-2.7270987 8.4575005 -0.25328475
-2.6944427 8.4469786 -0.25271237
-2.6678936 8.4554014 -0.25271237
-2.6383424 8.4541979 -0.25242615
-2.6117685 8.4624453 -0.25242615
-2.5807772 8.4614983 -0.25213996
-2.5541828 8.4695635 -0.25213996
-2.8131304 8.3808899 -0.71737361
-2.8056028 8.4464502 -0.72224814
-2.7697356 8.4268112 -0.7198109
-2.7524769 8.4639111 -0.72224814
-2.9344988 8.3538046 -0.30781356
-2.9213462 8.4007483 -0.30920953
-2.8261051 8.3805475 -0.30746454
-2.8029196 8.3988676 -0.30781356
-2.7702651 8.388648 -0.30711558
-2.750093 8.4163132 -0.30781356
-2.7328448 8.4534435 -0.30886054
-2.670651 8.4418573 -0.30781356
-2.6441159 8.4502058 -0.30781356
-2.5513313 8.4369268 -0.30641758
