# .PCD v0.7 - Point Cloud Data file format
VERSION 0.7
FIELDS x y z
SIZE 4 4 4
TYPE F F F
COUNT 1 1 1
WIDTH 87
HEIGHT 1
VIEWPOINT 0 0 0 1 0 0 0
POINTS 87
DATA ascii
34.39753 -26.544554 0.25002229
34.306068 -26.646351 0.24996467
34.261585 -26.784784 0.25025266
34.216568 -26.923201 0.25054064
33.828262 -27.488855 0.25082862
33.770702 -27.796171 0.25169256
33.721722 -27.934019 0.25198051
33.710609 -28.103844 0.25255647
33.714088 -28.286726 0.25324762
33.634769 -28.582165 0.25399637
33.598015 -28.733179 0.25439954
33.583382 -28.903812 0.2549755
34.215202 -26.504181 0.007546803
34.305271 -26.746805 0.0075852005
33.730499 -27.68928 0.0076096351
33.728153 -27.865168 0.0076288339
33.686584 -28.00935 0.0076393061
33.690456 -28.192043 0.0076602497
33.678215 -28.362158 0.0076777027
33.62709 -28.500149 0.0076864301
33.628693 -28.683521 0.0077073737
33.576355 -28.821592 0.0077161002
33.723724 -27.728281 -0.20554528
33.705784 -27.89147 -0.20596938
33.67178 -28.042019 -0.20629923
33.703403 -28.238138 -0.20700607
33.675682 -28.395452 -0.20738302
33.632053 -28.539932 -0.20766576
33.587849 -28.684414 -0.20794848
33.58099 -28.861492 -0.20846683
33.688736 -28.221134 -0.4521499
33.663754 -28.390726 -0.45307666
33.632736 -28.535772 -0.45379746
33.596149 -28.68675 -0.45451826
33.553909 -28.843636 -0.45523906
33.500935 -28.981623 -0.45575392
33.998619 -26.896091 1.2703198
33.960876 -27.040119 1.2720789
33.789902 -27.428274 1.2753038
33.757759 -27.578554 1.277356
33.732727 -27.735245 1.2797014
33.73785 -27.917543 1.2832195
33.719116 -28.080956 1.285858
33.699684 -28.244528 1.2884966
33.648994 -28.382477 1.2899625
33.658733 -28.572128 1.2937737
33.606812 -28.71019 1.2952396
33.614994 -28.900328 1.2990508
34.375107 -26.849541 1.0117586
34.188412 -26.877081 1.0087411
34.04108 -26.934729 1.0068842
34.050148 -27.116272 1.0096695
34.011593 -27.26062 1.0110621
33.82412 -27.461184 1.0105981
33.77639 -27.598936 1.0117586
33.766735 -27.768406 1.0140796
33.733246 -27.918968 1.0157044
33.722191 -28.088787 1.0180255
33.718056 -28.265232 1.0205786
33.632595 -28.737614 1.0261493
33.595207 -28.888756 1.027774
34.349739 -26.825136 0.76765203
34.178829 -26.864944 0.76571304
34.117783 -26.990799 0.76624185
34.06411 -27.122763 0.76694691
33.817707 -27.461109 0.76729947
33.760323 -27.768324 0.76994354
33.734531 -27.925253 0.77135366
33.720673 -28.082813 0.7729401
33.708908 -28.252842 0.77470279
33.667923 -28.580555 0.7778756
33.646385 -28.744637 0.77946204
33.601406 -28.889311 0.78051966
34.505348 -26.613813 0.51673102
34.397873 -26.703684 0.51637495
34.242905 -26.756195 0.51530683
34.142963 -26.851274 0.51506948
34.12587 -27.002108 0.51601893
33.75465 -27.591316 0.51696831
33.721851 -27.741699 0.51779908
33.673038 -27.879393 0.5183925
33.67746 -28.061867 0.51981664
33.670673 -28.22591 0.52100343
33.678493 -28.403061 0.52242762
33.622231 -28.546949 0.52302098
33.58559 -28.697912 0.52385175
33.543297 -28.85478 0.52468252
