# .PCD v0.7 - Point Cloud Data file format
VERSION 0.7
FIELDS x y z
SIZE 4 4 4
TYPE F F F
COUNT 1 1 1
WIDTH 908
HEIGHT 1
VIEWPOINT 0 0 0 1 0 0 0
POINTS 908
DATA ascii
3.0303924 -4.0859537 -0.91637522
3.0957487 -4.2576861 -0.94852871
2.9111822 -4.3386354 -0.94138348
2.8920898 -4.3395662 -0.93959713
2.8730204 -4.3404202 -0.93781084
2.8593705 -4.3494248 -0.93781084
2.840322 -4.3501415 -0.93602449
2.8373303 -4.3755655 -0.93959713
2.8288887 -4.3927355 -0.94138348
2.8150744 -4.4016013 -0.94138348
3.7143135 -4.4148459 0.03300225
3.6875834 -4.4111609 0.03288706
3.6601436 -4.4079909 0.032771867
3.6343033 -4.403419 0.032656677
3.6141031 -4.4070888 0.03259908
3.5939159 -4.410675 0.032541487
3.5926414 -4.4374757 0.032656677
3.5598564 -4.4253836 0.032483891
3.539685 -4.42874 0.032426294
3.5008485 -4.4085388 0.032195911
3.4745781 -4.4038262 0.032080717
3.4545491 -4.4068565 0.032023124
3.4353044 -4.409205 0.031965528
3.4022815 -4.3968654 0.031792741
3.3953247 -4.4148612 0.031850338
3.3692799 -4.4096265 0.031735145
3.3675184 -4.4361072 0.031850338
3.3415072 -4.4307089 0.031735145
3.3095591 -4.4171948 0.031562362
3.2777288 -4.4035234 0.031389572
3.2638786 -4.4137993 0.031389572
3.2381392 -4.4079251 0.031274382
3.2124689 -4.4019332 0.03115919
3.1927464 -4.403914 0.031101597
3.1730428 -4.4058142 0.031044001
3.1533592 -4.4076343 0.030986406
3.1278939 -4.4012284 0.030871212
3.1256032 -4.4273601 0.030986406
2.9835074 -4.4281926 0.03052564
2.9584408 -4.4209337 0.030410448
2.9500816 -4.4385285 0.030468045
2.9250877 -4.4310951 0.030352855
2.9158673 -4.4491286 0.030410448
2.9081192 -4.466135 0.030468045
2.899513 -4.4836402 0.03052564
2.8012648 -4.3922405 0.029776899
2.7842784 -4.4266729 0.029892091
2.7650514 -4.4269223 0.029834494
2.7405703 -4.4186025 0.029719302
2.7161691 -4.4101725 0.029604111
2.7075272 -4.4272094 0.029661708
2.7040048 -4.4527769 0.029776899
2.6693118 -4.4270177 0.029546518
2.6553907 -4.4353814 0.029546518
2.6158493 -4.4007502 0.029258538
2.5969191 -4.4003396 0.029200941
2.5729525 -4.3912315 0.02908575
2.554107 -4.390655 0.029028157
2.53529 -4.3900032 0.02897056
2.5165026 -4.389277 0.028912965
2.502701 -4.397161 0.028912965
2.493803 -4.4137025 0.02897056
2.4750235 -4.4127994 0.028912965
2.4757698 -4.4467478 0.02908575
2.4472487 -4.4282627 0.028912965
2.4244578 -4.4179821 0.028797776
2.4009805 -4.4080243 0.028682584
2.3918855 -4.4243364 0.028740177
2.3590233 -4.3966041 0.028509796
2.3593297 -4.4304571 0.028682584
2.3407168 -4.4290113 0.028624987
2.3128281 -4.4097915 0.028452201
2.3035896 -4.4259005 0.028509796
2.2758775 -4.406477 0.028337011
2.2757354 -4.4402866 0.028509796
2.2580063 -4.4381123 0.028452201
2.2252169 -4.4098854 0.02822182
2.2121227 -4.4164686 0.02822182
2.2071579 -4.4412961 0.028337011
2.2020588 -4.466136 0.028452201
2.1836128 -4.4640541 0.028394604
2.1739535 -4.4798837 0.028452201
2.146826 -4.4596753 0.028279414
2.1457627 -4.4934545 0.028452201
3.2128358 -4.2975264 -0.60119218
2.9623518 -4.378212 -0.59221917
2.9347842 -4.3967381 -0.59221917
2.9209571 -4.4059367 -0.59221917
2.8961897 -4.3984804 -0.58997589
2.8823574 -4.4075575 -0.58997589
2.8738997 -4.4249306 -0.59109759
2.8599842 -4.4339375 -0.59109759
2.8567424 -4.4596467 -0.59334081
3.7025013 -4.412281 0.00099832832
3.682215 -4.416213 0.00099658302
3.6555583 -4.4123621 0.00099309231
3.6353202 -4.4161062 0.00099134701
3.6087611 -4.4120283 0.0009878563
3.5822635 -4.4078274 0.0009843657
3.562113 -4.4112811 0.00098262029
3.5357158 -4.4068546 0.00097912957
3.5156183 -4.4101233 0.00097738439
3.4955344 -4.4133091 0.00097563898
3.4692788 -4.408556 0.00097214832
3.4492497 -4.4115577 0.00097040302
3.4230988 -4.4065819 0.00096691237
3.3970132 -4.4014854 0.00096342171
3.3770809 -4.404202 0.00096167636
3.3692908 -4.4227424 0.00096342171
3.3312292 -4.4014192 0.0009564404
3.3053603 -4.3958817 0.00095294975
3.2855463 -4.3982344 0.00095120439
3.2538259 -4.3844504 0.00094596844
3.2340987 -4.3866038 0.00094422308
3.2203021 -4.3967423 0.00094422308
3.1947007 -4.3906693 0.00094073243
3.1691694 -4.384479 0.00093724177
3.1262023 -4.3538094 0.0009285151
3.1111195 -4.3891377 0.00093200576
3.0742753 -4.3661923 0.00092502445
3.0605435 -4.3758287 0.00092502445
3.0410728 -4.3772116 0.00092327915
3.0045755 -4.3538303 0.00091629784
3.0014319 -4.3802643 0.00091978849
2.9658985 -4.3560948 0.00091280718
2.9634087 -4.3819542 0.00091629784
2.9384701 -4.3746438 0.00091280718
2.9247122 -4.3838539 0.00091280718
2.9219787 -4.4096885 0.00091629784
2.9026103 -4.4104948 0.00091455248
2.8942144 -4.4279609 0.00091629784
2.8802891 -4.4370313 0.00091629784
2.8717573 -4.4544606 0.00091804314
2.7739213 -4.3627391 0.00089535391
2.750277 -4.3540449 0.00089186314
2.7365849 -4.3626637 0.00089186314
2.7281561 -4.3797255 0.00089360855
2.7143831 -4.3882747 0.00089360855
2.705821 -4.4052997 0.00089535391
2.6711273 -4.3796358 0.00088837248
3.7140093 -4.3568521 0.2273576
3.7067542 -4.3761287 0.22775717
3.6865613 -4.3801017 0.2273576
3.6599772 -4.3763194 0.22655846
3.6334534 -4.3724136 0.22575931
3.6196995 -4.3838067 0.22575931
3.5932491 -4.379694 0.22496015
3.5731664 -4.3832102 0.22456057
3.5405343 -4.3711014 0.22336185
3.5142705 -4.366622 0.2225627
3.4943027 -4.3698311 0.22216314
3.4743493 -4.3729572 0.22176355
3.454411 -4.3760018 0.22136399
3.4283292 -4.3710957 0.22056484
3.4145801 -4.3818445 0.22056484
3.3885794 -4.3767362 0.21976569
3.3626444 -4.3715081 0.21896654
3.3428352 -4.374105 0.21856697
3.3238068 -4.3760409 0.21816739
3.3040318 -4.3784795 0.21776782
3.2842748 -4.380837 0.21736825
3.2578118 -4.3756623 0.21656911
3.2388792 -4.3772707 0.21616952
3.2132921 -4.3713107 0.21537037
3.1936593 -4.3733082 0.21497081
3.1740453 -4.3752255 0.21457122
3.1486173 -4.3689513 0.21377207
3.1348763 -4.3788214 0.21377207
2.9928076 -4.3806458 0.21057549
2.9846325 -4.3983002 0.21097505
2.9652243 -4.3993635 0.21057549
2.9458389 -4.4003482 0.2101759
2.9320004 -4.4095807 0.2101759
2.9181328 -4.4187703 0.2101759
2.9097078 -4.4362774 0.21057549
2.8957565 -4.4453964 0.21057549
2.8138461 -4.3793817 0.20657976
2.7893424 -4.3713422 0.20578061
2.7809348 -4.3885288 0.20618017
2.7572734 -4.3798375 0.20538102
2.7487876 -4.3969564 0.20578061
2.7244389 -4.3885808 0.20498146
2.705404 -4.3886065 0.20458187
2.6916034 -4.3970842 0.20458187
2.6725957 -4.3969741 0.2041823
2.6536152 -4.3967886 0.20378274
2.6397893 -4.4051032 0.20378274
2.6208372 -4.4047823 0.20338315
2.6019137 -4.4043856 0.20298359
2.5880642 -4.4125381 0.20298359
2.5691702 -4.4120064 0.202584
2.5503056 -4.4113998 0.20218444
2.5364342 -4.4193902 0.20218444
2.5225377 -4.4273372 0.20218444
2.4987969 -4.4178348 0.20138529
2.4849057 -4.425663 0.20138529
2.4661348 -4.4247146 0.2009857
2.4522219 -4.4324403 0.2009857
2.4238853 -4.4138317 0.19978699
2.4100068 -4.4214244 0.19978699
2.3961046 -4.4289742 0.19978699
2.3774617 -4.427671 0.19938742
2.358851 -4.4262953 0.19898784
2.3402717 -4.4248457 0.19858827
2.3263593 -4.4321761 0.19858827
2.3078177 -4.4305959 0.19818871
2.2938871 -4.4378242 0.19818871
2.2753837 -4.4361124 0.19778912
2.2569139 -4.434329 0.19738956
2.2429719 -4.4413977 0.19738956
2.2245414 -4.4394836 0.19698997
2.2061453 -4.4374986 0.19659041
2.1921935 -4.4444075 0.19659041
3.7304976 -4.3359289 -0.026765181
3.7161245 -4.3745289 -0.026859423
3.6765718 -4.3556075 -0.026670936
3.6757176 -4.3824639 -0.026765181
3.6427329 -4.3709383 -0.026623817
3.6226075 -4.3746567 -0.026576694
3.6024947 -4.3782921 -0.026529571
3.5760682 -4.3741002 -0.026435327
3.5434012 -4.3620224 -0.026293963
3.5359581 -4.3809161 -0.026341084
3.4846551 -4.3451843 -0.026058353
3.4772165 -4.3639331 -0.026105477
3.4572849 -4.366993 -0.026058353
3.4435487 -4.3778329 -0.026058353
3.4174683 -4.3728671 -0.025964109
3.4098442 -4.3914824 -0.026011232
3.3723717 -4.3699064 -0.025822746
3.3707905 -4.3963547 -0.025916988
3.3206201 -4.3591819 -0.025634259
3.3189728 -4.3855443 -0.025728501
2.9710863 -4.4249506 -0.024927432
2.9516246 -4.425941 -0.024880309
2.9321864 -4.4268537 -0.024833187
2.9072783 -4.4193316 -0.024738943
2.9043138 -4.4451895 -0.024833187
2.8903346 -4.4542918 -0.024833187
3.7066348 -4.3697696 0.32910812
3.6993296 -4.3890204 0.32968551
3.6726885 -4.385325 0.32853076
3.639714 -4.3738379 0.32679859
3.6195865 -4.3775635 0.32622123
3.5923631 -4.3741241 0.32506642
3.5667276 -4.369308 0.32391167
3.5529835 -4.3804917 0.32391167
3.5266604 -4.3760977 0.32275692
3.5066483 -4.3793683 0.32217953
3.4866498 -4.3825569 0.32160214
3.4604676 -4.3778367 0.32044739
3.4405234 -4.3808413 0.31987
3.4267435 -4.3916283 0.31987
3.4006813 -4.3866038 0.31871524
3.3754489 -4.3808703 0.31756046
3.3548284 -4.3841166 0.31698307
3.3297033 -4.3781705 0.31582832
3.3099065 -4.3806505 0.31525096
3.2901266 -4.3830485 0.31467354
3.2643886 -4.3773689 0.31351879
3.2387187 -4.3715715 0.31236401
3.2249691 -4.3817244 0.31236401
3.1993868 -4.3757281 0.31120926
3.1738741 -4.3696146 0.31005448
3.1542809 -4.3714743 0.30947709
3.1347079 -4.3732538 0.30889973
3.1209536 -4.3830805 0.30889973
2.9788685 -4.3846316 0.30428067
2.9706717 -4.4022379 0.30485803
2.9512603 -4.4032617 0.30428067
2.9326406 -4.4036946 0.30370328
2.9243076 -4.4212074 0.30428067
2.9104035 -4.4303727 0.30428067
2.8964708 -4.4394941 0.30428067
2.8871686 -4.457448 0.30485803
2.8006556 -4.3825278 0.29850686
2.7761574 -4.3744578 0.29735208
2.7570691 -4.3747172 0.29677469
2.7433119 -4.383357 0.29677469
2.7295277 -4.3919539 0.29677469
2.7052131 -4.3835268 0.29561993
2.6914284 -4.3920035 0.29561993
2.6724186 -4.3919139 0.29504254
2.658608 -4.4002881 0.29504254
2.6396263 -4.400063 0.29446515
2.620672 -4.3997622 0.29388776
2.6068368 -4.4079738 0.29388776
2.5879121 -4.4075379 0.2933104
2.5740526 -4.4156466 0.2933104
2.5551579 -4.4150758 0.29273301
2.5362923 -4.4144306 0.29215562
2.5174561 -4.4137096 0.29157823
2.4986498 -4.4129148 0.29100087
2.4847739 -4.4207425 0.29100087
2.4659998 -4.4198136 0.29042348
2.4472563 -4.4188113 0.28984609
2.4333622 -4.4264779 0.28984609
2.4146528 -4.4253416 0.2892687
2.3967466 -4.4237142 0.28869134
2.3828378 -4.431222 0.28869134
2.3641949 -4.4298835 0.28811395
2.3455842 -4.428472 0.28753659
2.33166 -4.4358187 0.28753659
2.317713 -4.4431219 0.28753659
2.299144 -4.4415202 0.28695917
2.2851791 -4.4487214 0.28695917
2.2666488 -4.4469891 0.28638181
2.2481515 -4.4451838 0.28580442
2.2349527 -4.4518347 0.28580442
2.2201774 -4.4592218 0.28580442
2.2025044 -4.4568443 0.28522706
2.1884921 -4.4637418 0.28522706
2.9477179 -4.3556328 -0.053751364
2.9451594 -4.3814812 -0.05395731
2.93138 -4.3907118 -0.05395731
2.8898692 -4.4181442 -0.05395731
2.8814139 -4.4355922 -0.054060284
3.7080016 -4.3435307 0.4593015
3.6878974 -4.3475509 0.45849428
3.667805 -4.3514876 0.45768711
3.6413319 -4.3476934 0.45607269
3.6276553 -4.3591118 0.45607269
3.5949104 -4.3474236 0.45365104
3.5685952 -4.3432803 0.45203662
3.5486369 -4.3467426 0.45122939
3.5224214 -4.3423748 0.44961497
3.5025153 -4.3456526 0.44880781
3.4764006 -4.3410616 0.44719338
3.4627457 -4.3519616 0.44719338
3.442883 -4.3549933 0.44638616
3.4230356 -4.3579435 0.44557896
3.4032035 -4.3608117 0.44477174
3.3833876 -4.3635983 0.44396454
3.357513 -4.3584013 0.44235015
3.3317044 -4.353085 0.44073573
3.3119874 -4.3555899 0.4399285
3.2930486 -4.3574395 0.43912131
3.2673905 -4.3518095 0.43750688
3.2418003 -4.3460612 0.43589246
3.2214458 -4.348772 0.43508524
3.2026279 -4.3502784 0.43427807
3.1771939 -4.3442149 0.43266362
3.1635303 -4.3541746 0.43266362
3.144011 -4.3560038 0.43185642
3.1245115 -4.3577528 0.4310492
2.9580753 -4.3523989 0.42297712
2.9443872 -4.3616705 0.42297712
2.93067 -4.3708992 0.42297712
2.916924 -4.3800845 0.42297712
2.9086392 -4.3975463 0.42378435
2.8948097 -4.406662 0.42378435
2.8863888 -4.424088 0.42459154
2.7885327 -4.3330975 0.41409785
2.7749062 -4.3418365 0.41409785
2.7559199 -4.3421111 0.41329062
2.7369597 -4.3423095 0.41248339
2.7240639 -4.3504109 0.41248339
2.7051296 -4.3504772 0.4116762
2.6862214 -4.3504672 0.41086897
2.6725409 -4.3588848 0.41086897
2.6536601 -4.3587403 0.41006181
2.6348066 -4.3585196 0.40925458
2.6211009 -4.3667755 0.40925458
2.6073692 -4.3749886 0.40925458
2.5834794 -4.3659906 0.40764016
2.5747898 -4.3826852 0.40844738
2.5610085 -4.3907523 0.40844738
2.5422165 -4.3901453 0.40764016
2.5184963 -4.3808165 0.40602574
2.5047212 -4.3887072 0.40602574
2.4909213 -4.396554 0.40602574
2.4722204 -4.3956652 0.40521854
2.4535499 -4.3947015 0.40441132
2.4349098 -4.3936644 0.40360415
2.4163003 -4.3925533 0.40279692
2.4024889 -4.4001226 0.40279692
2.3839145 -4.3988805 0.40198973
2.3700833 -4.4063478 0.40198973
2.3515446 -4.4049735 0.4011825
2.3330381 -4.4035268 0.40037531
2.3191924 -4.4108343 0.40037531
2.3007233 -4.4092565 0.39956808
2.2868598 -4.4164624 0.39956808
2.2684288 -4.4147549 0.39876089
2.2500308 -4.4129744 0.39795366
2.2316666 -4.4111223 0.39714646
2.2177975 -4.4181113 0.39714646
2.2039068 -4.4250569 0.39714646
2.1811836 -4.4140768 0.39553207
3.721585 -4.4187036 0.16828147
3.7012625 -4.4227142 0.1679883
3.6681547 -4.4112816 0.16710877
3.6471336 -4.4157209 0.16681561
3.6149657 -4.4033637 0.16593608
3.6137657 -4.4301782 0.16652243
3.5872276 -4.4259901 0.16593608
3.5481975 -4.4061217 0.16476339
3.5155804 -4.3938503 0.16388386
3.4955316 -4.3970551 0.1635907
3.4692938 -4.3923392 0.16300435
3.4492989 -4.395359 0.16271117
3.4170117 -4.3825436 0.16183166
3.4032266 -4.3932571 0.16183166
3.3703306 -4.3807693 0.16095214
3.3702457 -4.4060302 0.16153848
3.3503313 -4.4086442 0.16124532
3.3364646 -4.419148 0.16124532
3.2925358 -4.3896565 0.15977944
3.2727485 -4.3919697 0.15948628
3.2470236 -4.3861742 0.15889993
3.2332282 -4.3963532 0.15889993
3.2134955 -4.3984237 0.15860675
3.1879025 -4.3923302 0.15802041
3.1623795 -4.3861198 0.15743406
3.1485846 -4.3960328 0.15743406
3.1231525 -4.3896251 0.15684772
2.9696448 -4.3745971 0.15391597
2.9782739 -4.4170327 0.15508866
2.959583 -4.417551 0.15479548
2.9345982 -4.4101954 0.15420914
2.9096889 -4.4027262 0.15362279
2.9068303 -4.4285469 0.15420914
2.8921289 -4.4381618 0.15420914
2.8843889 -4.4551086 0.15450232
2.7854955 -4.4233809 0.15215693
2.7556591 -4.4067011 0.15127741
2.7523658 -4.4323087 0.15186375
2.7226615 -4.4154258 0.15098424
2.7035477 -4.4154382 0.15069106
2.6896629 -4.4239101 0.15069106
2.6705766 -4.4237862 0.1503979
2.6515174 -4.4235864 0.15010472
2.6376073 -4.4318943 0.15010472
2.6185768 -4.4315586 0.14981154
2.5945072 -4.4225307 0.14922519
2.5856409 -4.439292 0.14951837
2.5716817 -4.4473934 0.14951837
2.5527112 -4.4467869 0.14922519
2.5238535 -4.4287472 0.14834568
2.5099277 -4.4366541 0.14834568
2.4910731 -4.4358072 0.1480525
2.472249 -4.434886 0.14775933
2.4583042 -4.4426308 0.14775933
2.444335 -4.4503317 0.14775933
2.4263241 -4.4487944 0.14746615
2.4075682 -4.4476099 0.14717299
2.3888433 -4.4463511 0.14687981
2.3701503 -4.4450192 0.14658664
2.3561742 -4.4524431 0.14658664
2.3375175 -4.4509788 0.14629346
2.3235228 -4.4583006 0.14629346
2.309505 -4.4655781 0.14629346
2.2954648 -4.4728112 0.14629346
2.2814016 -4.480001 0.14629346
2.2590606 -4.4689188 0.14570712
2.2487185 -4.4853163 0.1460003
2.2309372 -4.4830246 0.14570712
2.2168424 -4.4900112 0.14570712
2.1850982 -4.4610662 0.14453442
2.1710727 -4.4679084 0.14453442
3.6677361 -4.3593025 0.69564265
3.6476498 -4.3631949 0.69442225
3.6212258 -4.3593755 0.69198143
3.6011872 -4.3630819 0.69076097
3.5740993 -4.3596606 0.6883201
3.548594 -4.3548694 0.68587929
3.5348952 -4.3659964 0.68587929
3.5087044 -4.3616247 0.68343842
3.48878 -4.3648791 0.68221796
3.4626904 -4.3602848 0.67977715
3.4428198 -4.3633556 0.67855674
3.4229639 -4.3663449 0.67733628
3.4031234 -4.3692527 0.67611587
3.3832982 -4.3720784 0.67489541
3.3513746 -4.3590984 0.67123419
3.3308694 -4.3623052 0.67001373
3.3126657 -4.3636904 0.66879332
3.2869723 -4.3582392 0.66635245
3.2673049 -4.3606067 0.66513205
3.2417207 -4.354938 0.66269118
3.2221141 -4.3571267 0.66147077
3.2084098 -4.367228 0.66147077
3.1829557 -4.3612633 0.6590299
3.1634047 -4.3632112 0.6578095
3.1438732 -4.3650804 0.65658909
3.1185775 -4.3588028 0.65414816
3.1048684 -4.3685784 0.65414816
2.9745827 -4.3865423 0.64682561
2.9496813 -4.3794127 0.6443848
2.9303813 -4.380414 0.6431644
2.9118686 -4.3808289 0.64194393
2.9035685 -4.3982329 0.6431644
2.8842859 -4.3990383 0.64194393
2.8758764 -4.4163895 0.6431644
2.866612 -4.4342318 0.6443848
2.7806661 -4.359673 0.63096011
2.7616363 -4.3600078 0.6297397
2.7426319 -4.3602662 0.6285193
2.7289202 -4.3688612 0.6285193
2.7099411 -4.3689833 0.62729883
2.6909883 -4.36903 0.62607843
2.6772492 -4.3774629 0.62607843
2.6583233 -4.3773737 0.62485796
2.6394241 -4.3772087 0.62363756
2.6205523 -4.3769693 0.62241715
2.6067886 -4.3851805 0.62241715
2.5929995 -4.3933482 0.62241715
2.5741572 -4.3929143 0.62119669
2.5503438 -4.383832 0.61875582
2.5365589 -4.3918228 0.61875582
2.5227492 -4.3997698 0.61875582
2.5039954 -4.3990531 0.61753541
2.485271 -4.398262 0.61631501
2.4714413 -4.4060478 0.61631501
2.4527495 -4.4051242 0.6150946
2.434088 -4.4041257 0.61387414
2.4202402 -4.4117513 0.61387414
2.4016128 -4.4106212 0.61265373
2.3837855 -4.4090018 0.61143327
2.3652201 -4.4077282 0.61021286
2.3513613 -4.4151373 0.61021286
2.3328316 -4.4137321 0.60899246
2.3143344 -4.4122548 0.60777205
2.3004615 -4.4195037 0.60777205
2.2820013 -4.4178953 0.60655159
2.2635741 -4.4162154 0.60533118
2.2496889 -4.4233046 0.60533118
2.2357817 -4.4303503 0.60533118
2.2137167 -4.4192262 0.60289031
2.1990499 -4.4265428 0.60289031
2.1859066 -4.4330482 0.60289031
2.1807113 -4.457715 0.60533118
3.6847987 -4.3990188 0.13230152
3.6581645 -4.3952093 0.13183731
3.6379647 -4.3989782 0.13160521
3.6304765 -4.4181075 0.13183731
3.6165786 -4.429491 0.13183731
3.5900431 -4.4253078 0.13137309
3.5698464 -4.4287829 0.13114099
3.5184026 -4.3931694 0.12974834
3.4983563 -4.3963804 0.12951623
3.4783242 -4.399509 0.12928413
3.4521291 -4.3946953 0.12881991
3.4383059 -4.4055185 0.12881991
3.4060624 -4.3926034 0.1281236
3.3922458 -4.4032822 0.1281236
3.390554 -4.429791 0.1285878
3.3645124 -4.4245095 0.1281236
3.3204503 -4.3951836 0.12696305
3.3066261 -4.4055934 0.12696305
3.2748327 -4.3919225 0.12626673
3.2550652 -4.3941579 0.12603462
3.2353163 -4.3963127 0.12580252
3.2155857 -4.398386 0.1255704
3.1899965 -4.3922925 0.12510619
3.1703303 -4.3941875 0.12487408
3.1506829 -4.3960013 0.12464197
3.136857 -4.4058781 0.12464197
2.961699 -4.4175558 0.12255299
2.9367182 -4.4102001 0.12208878
2.9283667 -4.4277411 0.12232089
2.9144421 -4.4369192 0.12232089
2.9114194 -4.4627953 0.12278511
2.8919456 -4.4635315 0.12255299
2.8045948 -4.3889694 0.11999981
2.7900252 -4.3982458 0.11999981
2.7777321 -4.4060197 0.11999981
2.7638764 -4.4147243 0.11999981
2.7394307 -4.4064088 0.1195356
2.7360835 -4.432003 0.11999981
2.7116904 -4.4235344 0.1195356
2.6925788 -4.4234934 0.11930349
2.6734943 -4.4233766 0.11907138
2.659585 -4.4317536 0.11907138
2.6405284 -4.4315004 0.11883927
2.6164064 -4.4225693 0.11837506
2.6024995 -4.4307671 0.11837506
2.5835276 -4.4302869 0.11814294
2.5695965 -4.4383817 0.11814294
2.5506554 -4.4377666 0.11791084
2.5267856 -4.4283953 0.11744662
2.5128608 -4.4363112 0.11744662
2.4989114 -4.4441838 0.11744662
2.4800613 -4.4432845 0.11721451
2.4660902 -4.4510541 0.11721451
2.4472742 -4.4500213 0.11698241
2.4340599 -4.457263 0.11698241
2.4152775 -4.4561 0.11675029
2.3965268 -4.454864 0.11651819
2.3778076 -4.4535532 0.11628608
2.3630261 -4.4614139 0.11628608
2.3451221 -4.459559 0.11605398
2.3264718 -4.4580431 0.11582186
2.3124552 -4.4653296 0.11582186
2.2984154 -4.4725723 0.11582186
2.2979879 -4.5064845 0.11651819
2.2793019 -4.5047631 0.11628608
2.2606499 -4.5029688 0.11605398
2.2420313 -4.5011015 0.11582186
2.2234471 -4.4991622 0.11558976
2.2093015 -4.506125 0.11558976
3.7142513 -4.3189387 1.0310748
3.6942806 -4.3231006 1.0292815
3.6679599 -4.319675 1.0256952
3.6416976 -4.3161263 1.0221089
3.6154938 -4.3124557 1.0185225
3.595639 -4.3162274 1.0167294
3.5757957 -4.3199177 1.0149362
3.5497231 -4.3159213 1.0113498
3.5299287 -4.319428 1.0095567
3.5039537 -4.3152094 1.0059702
3.4903798 -4.3261962 1.0059702
3.4644799 -4.3217759 1.0023839
3.4447641 -4.3249373 1.0005908
3.4128678 -4.3125763 0.99521124
3.3932297 -4.3155375 0.9934181
3.3736064 -4.3184175 0.99162489
3.3479745 -4.3134394 0.98803854
3.3284075 -4.3161392 0.98624545
3.3088562 -4.318759 0.98445219
3.2900755 -4.320725 0.9826591
3.2646303 -4.3153362 0.97907275
3.2510571 -4.3255711 0.97907275
3.2249422 -4.3205481 0.9754864
3.2062552 -4.3221908 0.97369319
3.1810043 -4.3163905 0.97010684
3.1674283 -4.3263626 0.97010684
3.1480427 -4.32833 0.96831369
3.1229227 -4.3222384 0.96472734
2.9880884 -4.3331308 0.95217514
2.9689097 -4.3343744 0.95038193
2.9552782 -4.3436804 0.95038193
2.9361181 -4.3447862 0.94858879
2.9224541 -4.3539886 0.94858879
2.9142096 -4.3713398 0.95038193
2.9004622 -4.3804731 0.95038193
2.89748 -4.4060144 0.95396823
2.8138001 -4.3079453 0.93065703
2.8055975 -4.3250232 0.93245018
2.7866771 -4.3255401 0.93065703
2.767781 -4.3259807 0.92886382
2.7541769 -4.3346543 0.92886382
2.7360616 -4.3344822 0.92707074
2.7224309 -4.3430567 0.92707074
2.7035832 -4.3432302 0.92527747
2.6847615 -4.343329 0.92348439
2.6711035 -4.3517418 0.92348439
2.6523077 -4.3517056 0.92169118
2.633539 -4.3515944 0.91989803
2.6147969 -4.3514085 0.91810483
2.6011136 -4.3596015 0.91810483
2.577395 -4.350812 0.91451848
2.5587354 -4.3504024 0.91272527
2.5450556 -4.3584194 0.91272527
2.5264258 -4.3578773 0.91093212
2.5078244 -4.3572607 0.90913892
2.4941235 -4.3651175 0.90913892
2.4755533 -4.3643694 0.90734577
2.4618301 -4.3721251 0.90734577
2.4432919 -4.3712444 0.90555257
2.4247837 -4.3702912 0.90375942
2.411042 -4.3778872 0.90375942
2.3925672 -4.3768024 0.90196621
2.364759 -4.3583407 0.89658678
3.7277267 -4.3898349 0.10082594
3.7074718 -4.3938808 0.10064967
3.6872282 -4.3978424 0.1004734
3.6542017 -4.3863535 0.099944592
3.6404035 -4.3978114 0.099944592
3.6329184 -4.4169502 0.10012086
3.6126997 -4.420598 0.099944592
3.5861936 -4.4163985 0.09959206
3.5660253 -4.4198594 0.099415787
3.5271165 -4.399828 0.098710708
3.5070496 -4.4030643 0.098534435
3.4807949 -4.398376 0.098181896
3.4607825 -4.4014277 0.09800563
3.4407847 -4.4043975 0.097829357
3.4154427 -4.3987885 0.097476818
3.3893974 -4.3936596 0.097124286
3.3755774 -4.4042859 0.097124286
3.3617244 -4.4148693 0.097124286
3.323719 -4.3935061 0.096419208
3.2978909 -4.3879371 0.096066669
3.27811 -4.3902626 0.095890403
3.258347 -4.3925071 0.09571413
3.2445314 -4.4027219 0.09571413
3.2188764 -4.3967543 0.09536159
3.1991696 -4.3987575 0.095185332
3.173629 -4.3925734 0.094832793
3.1481588 -4.3862724 0.094480246
3.1343632 -4.3961411 0.094480246
2.994921 -4.4320889 0.093598902
2.9642742 -4.4165645 0.09307009
2.9392982 -4.4092131 0.092717558
2.925432 -4.4184251 0.092717558
2.9225183 -4.4443054 0.09307009
2.9085417 -4.453465 0.09307009
2.8999746 -4.4709706 0.093246363
2.8072009 -4.3880138 0.091131136
2.7880425 -4.38837 0.090954863
2.7742424 -4.3971071 0.090954863
2.7551091 -4.3973269 0.090778597
2.741281 -4.4059606 0.090778597
2.7274256 -4.4145508 0.090778597
2.7135434 -4.4230971 0.090778597
2.6944358 -4.4230595 0.090602323
2.6805272 -4.4315023 0.090602323
2.6614468 -4.4313288 0.090426065
2.6423941 -4.4310789 0.090249792
2.6233692 -4.4307528 0.090073518
2.5993085 -4.4217305 0.089720979
2.5861773 -4.4294233 0.089720979
2.5672383 -4.428874 0.089544713
2.5533118 -4.4369178 0.089544713
2.5344033 -4.4362335 0.08936844
2.5155246 -4.4354753 0.089192174
2.4966755 -4.4346418 0.089015901
2.4827313 -4.4424634 0.089015901
2.4590678 -4.4327517 0.088663362
2.4451299 -4.440455 0.088663362
2.4311676 -4.4481149 0.088663362
2.4171815 -4.4557304 0.088663362
2.3984346 -4.4544978 0.088487096
2.3844285 -4.4620104 0.088487096
2.3657172 -4.4606447 0.088310823
2.3423846 -4.450356 0.087958291
2.3291695 -4.4572864 0.087958291
2.315155 -4.4645815 0.087958291
2.2957673 -4.4633417 0.087782025
2.2825141 -4.4701338 0.087782025
2.2594278 -4.4594417 0.087429486
2.2454069 -4.4665179 0.087429486
2.231364 -4.4735498 0.087429486
2.2128673 -4.4715748 0.087253213
2.1944051 -4.4695282 0.087076947
3.7088959 -4.3928757 0.067766055
3.6950769 -4.4045057 0.067766055
3.6620357 -4.3930321 0.067410015
3.6354744 -4.389101 0.067172654
3.6153212 -4.3927741 0.067053981
3.6015029 -4.40411 0.067053981
3.581351 -4.4076362 0.066935293
3.5612123 -4.4110789 0.066816613
3.5410879 -4.4144397 0.066697933
3.5023034 -4.3942404 0.066223219
3.4760809 -4.3895311 0.065985858
3.4622736 -4.4004302 0.065985858
3.4361308 -4.3955178 0.065748498
3.4100533 -4.3904848 0.065511145
3.3901422 -4.3932533 0.065392457
3.3710148 -4.3953528 0.065273784
3.3571899 -4.4059215 0.065273784
3.3373041 -4.4084678 0.065155096
3.3054311 -4.3949389 0.064799063
3.2856302 -4.397285 0.064680383
3.2598956 -4.3915157 0.064443022
3.2401564 -4.393682 0.064324349
3.2204359 -4.3957672 0.064205661
3.1948586 -4.3896813 0.063968308
3.181052 -4.3996968 0.063968308
3.149739 -4.3852863 0.063612267
3.1359468 -4.3951597 0.063612267
3.1394451 -4.4294815 0.063968308
2.9714713 -4.423914 0.062781513
2.9464769 -4.4165797 0.062544152
2.9325874 -4.4258146 0.062544152
2.9241571 -4.4433637 0.062662825
2.9156456 -4.4609041 0.062781513
2.9016168 -4.4700418 0.062781513
2.8012075 -4.4038215 0.061476033
2.7820275 -4.4041405 0.061357357
2.7628729 -4.4043822 0.061238673
2.7437446 -4.4045482 0.061119996
2.7298937 -4.413146 0.061119996
2.7160161 -4.4217005 0.061119996
2.6969135 -4.421669 0.061001316
2.6778383 -4.4215612 0.060882639
2.6587901 -4.4213772 0.060763955
2.6397696 -4.4211173 0.060645275
2.6258674 -4.4293885 0.060645275
2.6068761 -4.4289937 0.060526598
2.5879135 -4.4285226 0.060407914
2.5739882 -4.4366307 0.060407914
2.5500743 -4.4273553 0.060170557
2.5361528 -4.4353447 0.060170557
2.5172794 -4.4345894 0.060051881
2.4984357 -4.4337587 0.059933197
2.4796221 -4.4328542 0.05981452
2.460839 -4.4318748 0.059695836
2.4420865 -4.4308219 0.05957716
2.4281547 -4.4384718 0.05957716
2.4141989 -4.4460783 0.05957716
2.3954847 -4.4448333 0.059458479
2.3768027 -4.4435143 0.059339803
2.3581522 -4.4421225 0.059221119
2.3441851 -4.4495087 0.059221119
2.3255718 -4.4479852 0.059102442
2.3069911 -4.4463882 0.058983762
2.2884433 -4.4447193 0.058865085
2.2744687 -4.4518867 0.058865085
2.2514482 -4.4411626 0.058627725
2.1910634 -4.460124 0.058509044
2.1770406 -4.4669857 0.058509044
2.1543114 -4.4557886 0.058271684
3.0115974 -4.4764714 -0.21604091
2.9225404 -4.4037905 -0.21160725
2.9252138 -4.4379606 -0.21281642
2.8940411 -4.4225717 -0.21160725
2.8918166 -4.4478817 -0.21241337
2.8832576 -4.4653325 -0.21281642
2.8746176 -4.4827743 -0.21321949
2.8766482 -4.5170498 -0.21442866
2.9621069 -4.4481974 -0.24643256
2.9426043 -4.449151 -0.24596846
2.9121509 -4.433332 -0.2445762
2.9036696 -4.4508233 -0.24504028
2.884238 -4.4515424 -0.2445762
2.8810554 -4.4773784 -0.24550438
2.8623748 -4.4774919 -0.24504028
2.9309022 -3.9918616 -0.68344098
3.0527945 -4.1849504 -0.71513283
2.9297721 -4.379642 -0.72753394
2.8967326 -4.3897028 -0.72615606
2.8774898 -4.3905029 -0.72477812
2.8520939 -4.3834281 -0.72202229
2.8444612 -4.4001837 -0.72340024
2.8306234 -4.4090981 -0.72340024
2.8220916 -4.4263148 -0.72477812
2.808172 -4.4351587 -0.72477812
2.9373312 -4.4028401 -0.27528712
2.906945 -4.3870668 -0.27371705
2.8876615 -4.3878336 -0.27319369
2.8957057 -4.4303274 -0.27528712
2.8817732 -4.4394031 -0.27528712
2.8732204 -4.4568295 -0.27581048
2.8944261 -4.3876648 -0.49312699
2.8806276 -4.3967366 -0.49312699
2.8613625 -4.3974257 -0.49218592
2.8413534 -4.3985329 -0.49124482
2.839062 -4.4236903 -0.49312699
2.8305099 -4.4409776 -0.49406809
2.8325431 -4.4750681 -0.49689132
2.9249442 -4.3728318 -0.30197093
2.938772 -4.4236045 -0.30485782
2.8974113 -4.3911233 -0.30197093
2.8890653 -4.4085593 -0.30254829
2.8860757 -4.4343596 -0.30370307
2.8721306 -4.4434042 -0.30370307
2.8689263 -4.4692187 -0.30485782
2.9728715 -4.4224253 -0.33832908
2.9367628 -4.3985677 -0.33577567
2.9284539 -4.4160833 -0.33641404
2.9035702 -4.4086046 -0.33513731
2.8834643 -4.409862 -0.33449894
2.8703673 -4.4183979 -0.33449894
2.8673108 -4.4441538 -0.33577567
2.8533349 -4.4531398 -0.33577567
2.8446975 -4.4704957 -0.33641404
2.9685404 -4.449399 -0.092672274
2.9213579 -4.4087296 -0.091625132
2.9240091 -4.442924 -0.092148699
2.8983045 -4.4358673 -0.091799654
2.890583 -4.4528279 -0.091974184
2.8874331 -4.4786825 -0.092323229
2.8625484 -4.470902 -0.091974184
3.0181289 -4.4493756 -0.37971786
2.9289908 -4.4370141 -0.37545934
2.8986208 -4.4211745 -0.37333009
2.8901629 -4.4386158 -0.37403986
2.8816237 -4.4560475 -0.37474957
2.8783967 -4.4818606 -0.37616909
2.8696692 -4.4992895 -0.37687886
3.0409598 -4.4846916 -0.12487282
2.9292731 -4.4391265 -0.12255175
2.9153128 -4.448307 -0.12255175
2.8904107 -4.44069 -0.12208754
2.8927367 -4.4749303 -0.12278386
2.878664 -4.4839964 -0.12278386
2.9509947 -4.419878 -0.40400296
2.9370947 -4.4291267 -0.40400296
2.9067211 -4.4133453 -0.40171182
2.9037523 -4.4391475 -0.40323925
2.8952215 -4.4566112 -0.40400296
2.8758035 -4.4573045 -0.40323925
2.8671627 -4.4747143 -0.40400296
2.9505084 -4.4241529 -0.15111226
2.9200437 -4.4083943 -0.15025367
2.9061799 -4.4175463 -0.15025367
2.8922875 -4.4266543 -0.15025367
2.8838046 -4.4441056 -0.15053986
2.8698287 -4.4531436 -0.15053986
2.8504393 -4.4537168 -0.15025367
2.9905267 -4.4024296 -0.43058664
2.9544168 -4.4387212 -0.43139911
2.9185052 -4.4147015 -0.42814937
2.9046216 -4.4238482 -0.42814937
2.8907094 -4.4329515 -0.42814937
2.8929968 -4.4671249 -0.43058664
2.8789485 -4.4761915 -0.43058664
2.9573257 -4.36975 -0.18287335
2.9353523 -4.3965626 -0.18322235
2.9049821 -4.3807578 -0.18217537
2.8857172 -4.3815107 -0.18182638
2.8828621 -4.4072933 -0.18252437
2.8744376 -4.4247146 -0.18287335
2.8605227 -4.433723 -0.18287335
2.8573456 -4.4595284 -0.18357134
