# .PCD v0.7 - Point Cloud Data file format
VERSION 0.7
FIELDS x y z
SIZE 4 4 4
TYPE F F F
COUNT 1 1 1
WIDTH 562
HEIGHT 1
VIEWPOINT 0 0 0 1 0 0 0
POINTS 562
DATA ascii
1.4478394 24.276039 0.13984199
1.5215969 24.231451 0.13961162
1.5983802 24.23653 0.13966921
1.6731361 24.211435 0.13955401
1.7499056 24.216034 0.13961162
1.712755 22.704693 0.13091467
1.9821209 24.248301 0.13989958
2.0659032 24.28145 0.14012997
2.1421721 24.274841 0.14012997
2.2202363 24.287909 0.14024517
2.291358 24.271257 0.14018756
2.3747447 24.293383 0.14036034
2.4520514 24.295752 0.14041795
2.5273304 24.277983 0.14036034
2.5950332 24.150156 0.13966921
2.6710644 24.182106 0.13989958
2.7681696 24.322155 0.14076352
2.8457229 24.323271 0.14082111
2.9256923 24.343998 0.14099391
1.4708461 24.225315 0.0042289328
1.5463051 24.210594 0.004227187
1.6216861 24.195639 0.0042254417
1.6977006 24.190424 0.0042254417
1.6702502 22.718611 0.0039688786
1.7400841 22.693308 0.0039653881
1.9338002 24.222857 0.0042341687
2.0123649 24.246559 0.0042394046
2.089395 24.25008 0.0042411499
2.1673434 24.263317 0.0042446405
2.2435548 24.25639 0.0042446405
2.3216474 24.269131 0.0042481315
2.3998547 24.281618 0.0042516217
2.4761226 24.27396 0.0042516217
2.5377321 24.126829 0.004227187
2.6145895 24.128679 0.0042289328
2.7080998 24.279362 0.004256858
2.7931621 24.309988 0.0042638392
2.8707018 24.31102 0.0042655845
2.9506693 24.331665 0.0042708204
3.0258572 24.312351 0.0042690751
3.1060152 24.332485 0.004274311
3.183749 24.332523 0.0042760568
3.2670808 24.341652 0.0042795469
3.3462541 24.351084 0.0042830375
3.4255192 24.360256 0.0042865286
3.5020289 24.349375 0.0042865286
3.5828662 24.367935 0.0042917645
3.6638672 24.386225 0.0042970004
3.7419736 24.384478 0.0042987457
1.6918501 22.628313 0.90583426
1.7637064 22.632849 0.90623385
2.0413239 24.224321 0.9705652
2.1191716 24.237696 0.97136432
2.1962068 24.24087 0.97176391
2.2775183 24.243402 0.9721635
2.355603 24.256018 0.97296268
2.4327898 24.258438 0.97336221
2.5110588 24.270554 0.97416133
2.5734882 24.133385 0.9689669
2.6514754 24.145044 0.96976602
2.743052 24.275597 0.9753601
2.8204675 24.276783 0.97575969
2.9002776 24.297565 0.97695833
2.9778109 24.298252 0.97735792
3.0608728 24.308071 0.9781571
1.5455945 24.190334 -0.11403474
1.6229192 24.205317 -0.11412899
1.6982502 24.190123 -0.11408187
1.6643906 22.688711 -0.1070136
1.9335717 24.21258 -0.11427036
2.012109 24.23628 -0.11441172
2.0899553 24.249765 -0.11450597
2.167906 24.263002 -0.11460021
2.2432075 24.246113 -0.11455309
2.3222244 24.26881 -0.11469445
2.4026909 24.260975 -0.11469445
2.4809289 24.273203 -0.1147887
2.5435362 24.136009 -0.11417612
2.6215189 24.147781 -0.11427036
2.7106996 24.25868 -0.11483581
2.7926061 24.299719 -0.11507143
2.8689289 24.290825 -0.11507143
2.9500556 24.3214 -0.11525992
3.0276818 24.321936 -0.11530703
3.1040733 24.312304 -0.11530703
3.184329 24.332178 -0.11544841
3.2620943 24.331964 -0.11549553
3.3425977 24.351316 -0.11563689
3.4218636 24.3605 -0.11573114
3.4983742 24.349632 -0.11573114
3.5777581 24.358309 -0.11582538
3.6629744 24.375977 -0.11596674
3.7395456 24.364346 -0.11596674
1.4586608 24.214428 -0.2493981
1.5334655 24.189766 -0.24919215
1.6087829 24.174852 -0.24908917
1.6854168 24.179655 -0.24919215
1.6534966 22.698256 -0.2339523
1.7247941 22.692949 -0.2339523
1.9163961 24.202568 -0.24960405
1.9957093 24.23629 -0.25001591
2.0718369 24.229902 -0.25001591
2.1530628 24.232859 -0.25011891
2.2310157 24.24589 -0.25032485
2.3081348 24.248714 -0.25042781
2.3882236 24.281147 -0.25083971
2.4614534 24.243683 -0.25053081
2.5271671 24.136381 -0.24950106
2.6008413 24.108438 -0.24929512
2.6887298 24.209469 -0.25042781
2.7738669 24.28038 -0.25125161
2.8524659 24.291409 -0.25145754
2.9354069 24.301668 -0.25166348
3.0154326 24.322096 -0.25197241
3.0931013 24.322422 -0.25207537
3.1720836 24.332417 -0.25228131
3.2485073 24.32233 -0.25228131
3.326256 24.321913 -0.25238431
3.4011843 24.331739 -0.25259021
3.4846923 24.340124 -0.25279617
3.5625889 24.338951 -0.25289914
3.6434758 24.357307 -0.25320807
3.7260382 24.385277 -0.25361994
1.5817391 24.1775 0.70947933
1.661092 24.222275 0.71094525
1.6949103 22.626455 0.66433066
1.7683207 22.650913 0.66521019
1.8410826 22.665173 0.66579652
2.0455422 24.242996 0.71241111
2.1294096 24.275911 0.71358377
2.2038558 24.249191 0.71299744
2.2818902 24.262053 0.71358377
2.3600399 24.27466 0.7141701
2.4372826 24.277073 0.71446329
2.5145633 24.27924 0.71475649
2.5844591 24.171373 0.71182472
2.6592879 24.1532 0.71153152
2.7531302 24.303646 0.71622235
2.8317735 24.314734 0.71680868
2.9081433 24.305717 0.71680868
2.9869173 24.316305 0.71739501
1.4983529 24.327269 0.56495076
1.5663946 24.192745 0.56193334
1.6430638 24.19768 0.56216544
1.6807466 22.591394 0.52502817
1.7594303 22.685677 0.52734923
1.9552317 24.224607 0.56332594
2.0338399 24.248232 0.5640223
2.1108711 24.251682 0.5642544
2.1879437 24.254889 0.5644865
2.2650573 24.257851 0.56471866
2.3441439 24.280466 0.56541497
2.4213996 24.28293 0.56564707
2.4956267 24.255316 0.56518286
2.560221 24.137997 0.5626297
2.6403892 24.169586 0.5635581
2.7350574 24.289848 0.56657553
2.8159456 24.32086 0.56750393
2.8923347 24.311893 0.56750393
2.9699066 24.312611 0.56773603
1.5509329 24.206535 0.42692381
1.6269691 24.201544 0.42692381
1.7029893 24.196314 0.42692381
1.6681576 22.685152 0.40030715
1.7386606 22.66983 0.4001309
1.9391619 24.228683 0.42780513
2.0177679 24.252365 0.42833397
2.0956676 24.265829 0.4286865
2.1727798 24.269085 0.42886278
2.249933 24.272095 0.42903906
2.3271394 24.274858 0.42921531
2.4076262 24.267008 0.42921531
2.4848669 24.26927 0.42939156
2.5495422 24.15197 0.42745262
2.625402 24.143843 0.42745262
2.7179406 24.284519 0.43009666
2.797648 24.30566 0.43062547
2.8763397 24.316608 0.430978
2.955128 24.327303 0.43133053
3.0327742 24.327822 0.43150681
1.4670193 24.21349 0.287442
1.5424395 24.198784 0.28732333
1.6164424 24.163889 0.28696728
1.6923444 24.158691 0.28696728
1.7249796 22.592245 0.26845324
2.0032268 24.225203 0.28803539
2.0801899 24.22875 0.28815407
2.1614027 24.23168 0.28827274
2.2384496 24.234726 0.28839144
2.3155243 24.23753 0.28851011
2.3936229 24.250038 0.28874749
2.4728386 24.27224 0.28910351
2.5375733 24.154964 0.28779805
2.6112862 24.126991 0.28756067
2.697052 24.208107 0.28862879
2.7810719 24.269053 0.28945956
2.8596549 24.280056 0.2896969
2.9437699 24.300217 0.29005295
3.0200934 24.29085 0.29005295
1.5252845 24.021664 -0.96936268
1.6014024 24.026724 -0.96976572
1.6789669 24.051477 -0.97097498
1.7545153 24.046085 -0.97097498
1.7302368 22.725307 -0.9177708
1.8031937 22.739681 -0.91857696
1.9851601 24.078272 -0.97299021
2.0675519 24.101423 -0.97419947
2.1406064 24.064951 -0.97299021
2.2180233 24.078007 -0.97379637
2.2904038 24.081266 -0.97419947
2.3702359 24.07354 -0.97419947
2.4488869 24.095797 -0.97540855
2.5245707 24.087984 -0.97540855
2.6076531 24.109283 -0.97661781
2.6637452 23.962408 -0.97097498
2.7443283 23.963369 -0.97137803
2.8347623 24.083635 -0.97661781
2.9163907 24.12421 -0.97863305
2.9946177 24.134762 -0.9794392
3.074199 24.154972 -0.9806484
3.1513691 24.155104 -0.9810515
3.2285573 24.154987 -0.98145455
3.3057756 24.154625 -0.98185754
3.3844075 24.163912 -0.98266369
3.4603136 24.15316 -0.98266369
3.5390646 24.161943 -0.98346984
3.6193817 24.180353 -0.98467904
3.6953254 24.168863 -0.98467904
3.7800748 24.186092 -0.98588818
3.8623226 24.21357 -0.98750049
3.9383824 24.201315 -0.98750049
4.0176573 24.208536 -0.98830652
1.4050074 24.042974 -1.1170682
1.4793038 24.018501 -1.1161399
1.5554072 24.023703 -1.1166041
1.6315449 24.028664 -1.1170682
1.7091438 24.053314 -1.1184604
1.6911811 22.732559 -1.0572003
1.7641294 22.747055 -1.0581285
1.9415572 24.055712 -1.1193886
2.0179646 24.059446 -1.1198527
2.0944018 24.062941 -1.1203167
2.1717777 24.076141 -1.121245
2.2483292 24.079145 -1.1217091
2.3268518 24.101791 -1.1231012
2.4025552 24.094362 -1.1231012
2.480278 24.106569 -1.1240295
2.5391505 23.939722 -1.1166041
2.6176085 23.961418 -1.1179963
2.6950998 23.972929 -1.1189245
2.790657 24.102783 -1.1254218
2.8734369 24.153412 -1.1282064
2.9480894 24.13435 -1.1277422
3.0251462 24.13488 -1.1282064
3.1047683 24.154982 -1.1295986
3.1819389 24.155014 -1.1300627
3.2633598 24.154226 -1.1305268
3.3419588 24.163647 -1.1314549
3.4206493 24.172812 -1.1323831
3.4994431 24.181717 -1.1333114
3.5768528 24.180487 -1.1337755
3.6542888 24.179007 -1.1342394
3.7332742 24.187153 -1.1351677
3.8108058 24.185171 -1.1356318
3.8899338 24.192806 -1.13656
3.9723794 24.219896 -1.1384163
1.3745316 22.697197 -1.1895963
1.6777756 23.958353 -1.2565863
1.6610968 22.698053 -1.190643
1.7361982 22.742508 -1.1932597
1.9132309 24.010826 -1.2602499
1.990301 24.024603 -1.2612965
2.0790775 23.315348 -1.2246614
2.2184772 24.024664 -1.2623432
2.2977395 24.057341 -1.2644367
2.3794713 24.069464 -1.2654834
2.4469578 23.982393 -1.2612965
2.434469 23.140348 -1.2173344
2.5179191 23.231865 -1.2225679
2.6706622 23.938417 -1.2602499
2.7629375 24.078726 -1.2681001
2.8432603 24.109594 -1.2701936
2.8901505 23.862614 -1.257633
2.9959147 24.101164 -1.2707169
3.0716126 24.091635 -1.2707169
3.1511779 24.11157 -1.272287
3.2282338 24.11145 -1.2728105
3.3080342 24.130871 -1.2743806
3.3879881 24.150028 -1.2759506
3.4610121 24.119493 -1.2749038
3.5295146 24.059099 -1.272287
3.6241088 24.146019 -1.2775207
3.6212175 23.621229 -1.250306
3.7819238 24.162235 -1.2796141
3.8625379 24.179821 -1.2811842
3.9400985 24.177422 -1.2817075
1.4833994 22.593197 -1.3071934
1.5708848 22.827456 -1.3210506
1.6389936 22.772621 -1.3181638
1.8584248 22.815863 -1.321628
1.9613212 23.177973 -1.3429912
2.0408034 23.201176 -1.3447232
2.1418359 23.50285 -1.3626221
2.1771383 23.088505 -1.3389494
2.2933421 23.528673 -1.3649317
2.4123454 23.968332 -1.3909138
2.3770823 22.898155 -1.3291339
2.4309108 22.721827 -1.3193185
2.5329528 22.991922 -1.3354851
2.646868 23.350874 -1.3568484
2.8845253 24.056873 -1.3989972
2.9002144 23.562189 -1.3707055
3.0143147 23.869902 -1.3891817
3.0392196 23.474197 -1.3666638
3.1971192 24.097897 -1.4036163
3.2781911 24.127304 -1.4059259
3.3483937 24.107582 -1.4053484
3.3705635 23.691126 -1.3816758
3.4579387 23.769327 -1.3868722
3.5134764 23.62998 -1.3793662
3.4810872 22.918074 -1.3383721
3.6863909 23.76528 -1.3886043
3.767297 23.79302 -1.3909138
3.9010167 24.145708 -1.412277
3.763926 22.84297 -1.3366399
3.8538873 22.939329 -1.3429912
3.9316254 22.93626 -1.3435684
4.0294695 23.071306 -1.3522292
4.1421943 23.284592 -1.365509
4.2081947 23.23217 -1.3631995
4.2992816 23.317011 -1.3689733
1.6705848 22.781807 -1.4586453
1.7406273 22.756544 -1.4573686
1.8852242 22.765049 -1.4586453
1.9803522 22.98736 -1.4733275
2.058754 23.050608 -1.477796
2.1384892 23.123526 -1.4829028
2.2281938 23.295513 -1.4943932
2.2984276 23.258604 -1.4924781
2.3805742 23.340624 -1.4982233
2.3922439 22.707331 -1.458007
2.4657147 22.719545 -1.4592836
2.5426028 22.76128 -1.4624754
2.6220624 22.82258 -1.4669439
2.7299471 23.121473 -1.486733
2.814558 23.211857 -1.4931165
2.9649553 23.82682 -1.5333329
3.0070148 23.559999 -1.5167358
3.0965195 23.669182 -1.5243959
3.1668901 23.629665 -1.522481
3.2505867 23.68881 -1.5269495
3.3790331 24.063915 -1.5518453
3.4107013 23.746946 -1.5320563
3.4548867 23.528757 -1.5186508
3.5036492 23.350008 -1.5077987
3.546304 23.111376 -1.4931165
3.711436 23.691704 -1.531418
3.6175122 22.625462 -1.4631138
3.6789463 22.554886 -1.4592836
3.8004713 22.848406 -1.4790727
3.8805597 22.88555 -1.4822644
3.9541438 22.88308 -1.4829028
4.0208268 22.841057 -1.4809877
4.1000705 22.847244 -1.4822644
4.2040658 23.010967 -1.4937549
4.3054862 23.154636 -1.5039686
1.468189 24.051146 -0.41990489
1.545014 24.06637 -0.42025393
1.6206099 24.061398 -0.42025393
1.6968907 24.066162 -0.42042848
1.772498 24.060713 -0.42042848
1.7442262 22.699203 -0.3966932
1.817911 22.723513 -0.39721677
2.0041308 24.102724 -0.42147562
2.085767 24.11587 -0.42182466
2.1624062 24.119158 -0.42199919
2.2390995 24.122198 -0.42217368
2.3167737 24.134951 -0.42252275
2.3945498 24.147453 -0.4228718
2.4703963 24.139812 -0.4228718
2.55358 24.161318 -0.4233954
2.6122048 23.994137 -0.42060301
2.6853464 23.965939 -0.42025393
2.7754705 24.086512 -0.42252275
2.8640318 24.186897 -0.42444253
2.9412174 24.187706 -0.42461705
3.020895 24.208111 -0.42514059
3.0969288 24.198502 -0.42514059
3.1768267 24.218395 -0.42566419
3.2542343 24.218204 -0.42583871
3.3357403 24.247482 -0.4265368
3.4118962 24.236883 -0.4265368
3.490864 24.24584 -0.42688584
3.5713751 24.264431 -0.42740944
3.6505659 24.272865 -0.42775849
3.7310386 24.260626 -0.42775849
3.8087823 24.258661 -0.42793298
3.8912897 24.28607 -0.4286311
1.3555334 22.85198 -1.6260442
1.4391164 23.036762 -1.6395296
1.4938641 22.763386 -1.6203662
1.5544286 22.59936 -1.6090101
1.6200467 22.464743 -1.5997833
1.6921066 22.479435 -1.6012028
1.7596118 22.434231 -1.5983638
1.833321 22.468359 -1.6012028
1.9139947 22.58176 -1.6097199
2.014601 22.913477 -1.6338514
2.0730243 22.758028 -1.6232051
2.318336 23.045151 -1.6452075
2.3814731 22.948458 -1.6388198
2.4461331 22.871433 -1.6338514
2.4950573 22.655424 -1.6189467
2.5735447 22.67676 -1.621076
2.6540112 22.747824 -1.6267539
2.7669775 23.086012 -1.6515952
2.8297613 22.998003 -1.6459172
2.9194729 23.12755 -1.6558539
2.9831562 23.049019 -1.6508856
3.0530121 22.989557 -1.6473367
3.1399953 23.088577 -1.6551441
3.2138984 23.088476 -1.6558539
3.2878194 23.088142 -1.6565636
3.3244219 22.830929 -1.6388198
3.4005301 22.84997 -1.6409489
3.4318492 22.572912 -1.6217858
3.5073323 22.591589 -1.6239148
3.6391411 22.964685 -1.6515952
3.6858044 22.795588 -1.6402391
3.7249525 22.587059 -1.6260442
3.7760642 22.457201 -1.6175271
3.9004843 22.759838 -1.6402391
3.9668195 22.717995 -1.63811
4.0416594 22.725063 -1.6395296
1.4301649 24.040945 -0.55821395
1.504433 24.016376 -0.55774975
1.5818517 24.04146 -0.55844605
1.6566823 24.026398 -0.55821395
1.7370685 24.030743 -0.55844605
1.7839259 22.693794 -0.52757603
1.9659179 24.043198 -0.55914241
2.0422843 24.046865 -0.55937451
2.1195693 24.060247 -0.55983871
2.1960511 24.063425 -0.56007081
2.2735255 24.076313 -0.56053501
2.3501196 24.079002 -0.56076711
2.4287558 24.101341 -0.56146342
2.5044572 24.093592 -0.56146342
2.5780058 24.065727 -0.56099921
2.6437497 23.968073 -0.55891031
2.72773 23.998907 -0.55983871
2.8158624 24.099449 -0.56239188
2.8963184 24.130188 -0.56332028
2.9745519 24.140814 -0.56378448
3.0516405 24.141268 -0.56401658
3.1300325 24.151392 -0.56448084
3.2140565 24.17061 -0.56517714
3.2886233 24.150488 -0.56494504
3.3672333 24.15984 -0.56540924
3.4431138 24.149143 -0.56540924
3.524739 24.177778 -0.56633765
3.6006753 24.166586 -0.56633765
3.6765759 24.155155 -0.56633765
3.7570441 24.173122 -0.56703401
3.8361084 24.180946 -0.56749815
3.9152462 24.188513 -0.56796241
3.9993525 24.225414 -0.56912291
1.471012 22.116255 -1.694674
1.543951 22.161259 -1.6984926
1.6142989 22.166243 -1.6992563
1.6869504 22.200829 -1.7023112
1.7629851 22.274937 -1.7084208
1.8360223 22.259031 -1.7076571
1.9093457 22.292892 -1.710712
1.9846659 22.346373 -1.7152942
2.0832045 22.64782 -1.7389692
2.152451 22.621313 -1.7374419
2.2470186 22.812504 -1.7527159
2.3489525 23.102921 -1.7756274
2.3798978 22.698772 -1.745079
2.4758534 22.919184 -1.7626443
2.5235794 22.693279 -1.7458426
2.5891874 22.63571 -1.7420241
2.6847494 22.835415 -1.758062
2.7708385 22.945654 -1.7672266
2.8379989 22.897257 -1.7641717
2.8998489 22.809099 -1.758062
2.9856718 22.908634 -1.7664628
3.0642259 22.948559 -1.7702814
3.1728044 23.205544 -1.7909015
3.1931531 22.82023 -1.7618806
3.2634127 22.800217 -1.7611169
3.3263557 22.730659 -1.7565347
3.4371691 22.956161 -1.7748637
3.5197785 22.54006 -1.7443153
3.5984201 22.578123 -1.7481338
3.6789367 22.625755 -1.7527159
3.7768183 22.751137 -1.7634081
3.9876225 22.694891 -1.7618806
1.4592376 24.025806 -0.68801868
1.5347066 24.021103 -0.68801868
1.6101604 24.016165 -0.68801868
1.6855981 24.010986 -0.68801868
1.7624964 24.025511 -0.68859112
1.7379577 22.714216 -0.65109926
1.9938626 24.017448 -0.68887728
2.0735977 24.06086 -0.69030827
2.1482835 24.04427 -0.69002205
2.2238197 24.037401 -0.69002205
2.3021798 24.060148 -0.69088066
2.3777525 24.052797 -0.69088066
2.4605536 24.074614 -0.69173926
2.5372193 24.076706 -0.69202548
2.6106966 24.04874 -0.6914531
2.6751242 23.94108 -0.68859112
2.7548888 23.972281 -0.68973589
2.8466072 24.102482 -0.69374263
2.9247317 24.113266 -0.69431508
3.0004683 24.10396 -0.69431508
3.0812416 24.134075 -0.69545984
3.1583405 24.134188 -0.695746
3.2354832 24.134052 -0.69603223
3.3140037 24.143576 -0.69660467
3.3926153 24.152842 -0.69717699
3.4684739 24.142065 -0.69717699
3.5472047 24.150829 -0.69774944
3.6275222 24.16922 -0.69860804
3.7091687 24.166939 -0.6988942
3.786618 24.165043 -0.69918042
3.8640916 24.162897 -0.69946659
3.9464204 24.1901 -0.70061141
1.5223966 24.01675 -0.83898389
1.5971709 24.001877 -0.83863485
1.6739583 24.016682 -0.83933288
1.7501259 24.021271 -0.83968186
1.7207319 22.640488 -0.7915206
1.9789107 24.03359 -0.84072888
2.0561087 24.047169 -0.84142685
2.1367283 24.050173 -0.84177583
2.2122705 24.043341 -0.84177583
2.2887528 24.046221 -0.84212482
2.3662426 24.058804 -0.84282285
2.4428225 24.061195 -0.84317183
2.5225692 24.093159 -0.84456778
2.5939608 24.04537 -0.84317183
2.6595376 23.94771 -0.84003085
2.7381649 23.969025 -0.84107786
2.8262939 24.069483 -0.84491676
2.9133003 24.119507 -0.84701073
2.9890566 24.110235 -0.84701073
3.0660589 24.11064 -0.84735972
3.1443746 24.120708 -0.84805775
3.2214584 24.120617 -0.84840673
3.2999294 24.130182 -0.84910476
3.3729017 24.13018 -0.84945375
3.4571581 24.14854 -0.8505007
3.5344524 24.147449 -0.85084969
3.6132545 24.155994 -0.85154772
3.6906464 24.154402 -0.8518967
3.7695937 24.162437 -0.85259473
3.847054 24.160343 -0.85294366
3.927748 24.177732 -0.85399067
