# .PCD v0.7 - Point Cloud Data file format
VERSION 0.7
FIELDS x y z
SIZE 4 4 4
TYPE F F F
COUNT 1 1 1
WIDTH 135
HEIGHT 1
VIEWPOINT 0 0 0 1 0 0 0
POINTS 135
DATA ascii
11.828613 -16.840101 0.11830125
11.781374 -16.885378 0.11835885
11.762461 -16.971609 0.11870442
11.782904 -16.705999 0.81593007
11.736094 -16.75112 0.81632966
11.683411 -16.787907 0.81632966
11.624932 -16.816307 0.81593007
12.158749 -16.392708 -0.095987096
12.089396 -16.406672 -0.095845737
12.031887 -16.436501 -0.095798612
11.986072 -16.482307 -0.095845737
11.951797 -16.544201 -0.095987096
11.928912 -16.622292 -0.096222714
11.905653 -16.700399 -0.096458316
11.876243 -16.770367 -0.096646808
11.846509 -16.840311 -0.096835293
12.251987 -16.30916 -0.2096509
12.215503 -16.361469 -0.20985685
12.146177 -16.375668 -0.20954795
12.076882 -16.389589 -0.20923904
12.031239 -16.43552 -0.209342
11.991303 -16.489414 -0.20954795
11.951148 -16.543217 -0.20975389
11.928258 -16.621309 -0.21026875
11.910796 -16.707563 -0.21088658
11.887133 -16.785707 -0.21140143
11.833396 -16.716272 0.59953934
11.780822 -16.753365 0.59953934
11.74531 -16.814873 0.60041887
11.692427 -16.851688 0.60041887
11.633753 -16.88011 0.60012573
11.864401 -16.760002 0.47582132
11.788683 -16.764482 0.47489285
11.764586 -16.842411 0.47605342
11.717317 -16.887501 0.47628552
11.658532 -16.915997 0.47605342
11.865787 -16.761896 0.3613517
11.818819 -16.80727 0.36152798
11.777409 -16.86071 0.36188048
11.72438 -16.897627 0.36188048
11.671237 -16.934378 0.36188048
11.811074 -16.80221 0.2432932
11.769675 -16.855633 0.24353056
11.733753 -16.917179 0.24388658
12.306484 -16.423792 -0.82627589
12.113898 -16.38031 -0.82023001
12.080132 -16.442438 -0.82143915
12.022524 -16.472239 -0.82103604
11.970716 -16.509926 -0.82103604
11.918789 -16.547453 -0.82103604
11.890011 -16.617313 -0.82264835
11.86091 -16.687155 -0.82426053
11.848787 -16.78146 -0.82708204
11.847664 -16.89221 -0.83070952
12.157887 -16.403606 -0.94674659
12.094447 -16.425632 -0.94581836
12.042785 -16.463549 -0.94581836
11.98513 -16.493219 -0.94535428
11.939105 -16.538889 -0.94581836
11.910376 -16.608784 -0.94767475
11.887121 -16.686796 -0.94999522
11.877964 -16.77906 -0.95324385
11.865419 -16.873487 -0.95649242
12.145105 -16.368351 -1.0660834
12.081775 -16.390348 -1.0650368
12.036121 -16.436279 -1.06556
11.978553 -16.465937 -1.0650368
11.938461 -16.519674 -1.0660834
11.909798 -16.58955 -1.0681769
11.898206 -16.6838 -1.0718404
11.880365 -16.769993 -1.0749805
12.152744 -16.354727 -1.1761277
12.101304 -16.392824 -1.1761277
12.037944 -16.414658 -1.1749729
11.986316 -16.452394 -1.1749729
11.946271 -16.506145 -1.1761277
11.91766 -16.576025 -1.1784372
11.882926 -16.637758 -1.1801692
11.865247 -16.723871 -1.1836337
11.852892 -16.818197 -1.1876754
12.162529 -16.350422 -1.3009712
12.14077 -16.428673 -1.304163
12.059557 -16.426517 -1.3009712
12.013775 -16.472383 -1.3016095
11.956108 -16.501965 -1.3009712
11.921703 -16.56374 -1.3028862
11.881223 -16.617344 -1.304163
11.857863 -16.695261 -1.3073547
11.834132 -16.773193 -1.3105464
11.815759 -16.859316 -1.3143767
12.185748 -16.393547 -0.35585457
12.116361 -16.407625 -0.35533097
12.058839 -16.43755 -0.35515648
12.001248 -16.467274 -0.35498196
11.955321 -16.512993 -0.35515648
11.926746 -16.58293 -0.35585457
11.909479 -16.669121 -0.35690171
11.880209 -16.739061 -0.35759979
11.867908 -16.833492 -0.35882148
12.09043 -16.342421 -1.4436377
12.027213 -16.364248 -1.4422182
11.981627 -16.410009 -1.442928
11.832282 -16.640562 -1.4500254
11.828913 -16.740763 -1.4557035
11.839305 -16.867643 -1.4635106
12.132659 -16.405476 -0.47279909
12.08106 -16.443512 -0.47279909
12.011659 -16.457161 -0.47210279
11.959898 -16.494816 -0.47210279
11.919705 -16.548529 -0.47256696
11.896749 -16.626545 -0.47372752
11.885006 -16.720873 -0.47535226
11.869952 -16.805054 -0.47674489
12.155821 -16.370743 -1.5587336
12.074739 -16.368727 -1.554915
12.01147 -16.390495 -1.5533876
11.959918 -16.42815 -1.5533876
12.159916 -16.394176 -0.58327043
12.084637 -16.400106 -0.58212566
12.027151 -16.429924 -0.58183944
11.981354 -16.475712 -0.58212566
11.929535 -16.513271 -0.58212566
11.900907 -16.583153 -0.58327043
11.883561 -16.669298 -0.58498758
11.854239 -16.739182 -0.58613241
11.847598 -16.841749 -0.588422
12.202792 -16.344332 -0.71090269
12.139482 -16.366531 -0.71020478
12.076153 -16.388493 -0.70950675
12.024608 -16.426352 -0.70950675
11.972943 -16.464046 -0.70950675
11.932862 -16.517784 -0.71020478
11.90421 -16.587673 -0.71160072
11.869437 -16.649408 -0.71264774
11.857489 -16.743717 -0.71509069
