# .PCD v0.7 - Point Cloud Data file format
VERSION 0.7
FIELDS x y z
SIZE 4 4 4
TYPE F F F
COUNT 1 1 1
WIDTH 94
HEIGHT 1
VIEWPOINT 0 0 0 1 0 0 0
POINTS 94
DATA ascii
5.6580634 36.119446 0.0063739424
5.7778153 36.140991 0.0063809231
5.8961692 36.152271 0.0063861595
6.0129914 36.153297 0.0063896505
6.1315494 36.163807 0.0063948859
6.2485304 36.164074 0.006398377
6.3725247 36.203354 0.0064088483
5.6591525 36.108749 -0.17204167
5.7741389 36.10067 -0.1720888
5.8955731 36.131699 -0.17232442
6.0186467 36.131676 -0.17241865
6.1405149 36.16188 -0.17265427
6.254086 36.14241 -0.17265427
6.3745408 36.16198 -0.17284276
6.4722042 36.053192 -0.17241865
6.5908265 36.062191 -0.17256002
6.7077599 36.060966 -0.17265427
6.8247309 36.059368 -0.17274851
6.9474311 36.086849 -0.17298412
7.0665269 36.094284 -0.17312548
5.6394782 36.130192 -0.37615657
5.7545271 36.122173 -0.37625957
5.8727918 36.133526 -0.37656847
5.9928403 36.154354 -0.37698036
6.1113911 36.164928 -0.3772893
6.241488 36.203587 -0.37790713
6.3551893 36.1838 -0.37790713
6.4564929 36.094757 -0.37718633
6.5626788 36.034946 -0.37677443
6.6849875 36.063305 -0.3772893
6.8038106 36.071602 -0.3775982
6.9271674 36.068481 -0.37780413
7.0481138 36.0858 -0.37821603
6.0862284 35.988926 -1.4707711
6.1992559 35.969627 -1.4707711
6.3105154 35.940132 -1.470368
6.4339337 35.979149 -1.4727864
6.5317302 35.839649 -1.4679496
6.6515708 35.858253 -1.4695619
6.7697401 35.866634 -1.4707711
6.8880281 35.874634 -1.4719803
7.004539 35.872429 -1.4727864
7.1230288 35.879646 -1.4739956
6.3728266 36.021118 -1.6976465
6.4656582 35.852325 -1.6906853
6.5836644 35.861313 -1.6920774
6.7054591 35.889549 -1.6943978
6.8137879 35.879311 -1.694862
6.9403148 35.895744 -1.6967183
7.0549722 35.883568 -1.6971824
7.0142264 35.860291 -1.9128791
5.876153 35.967186 -0.63544214
5.9924159 35.968273 -0.63579118
6.1120691 35.988697 -0.63648921
6.2302074 35.998878 -0.63701284
6.3449998 35.988976 -0.6371873
6.4501734 35.889008 -0.63579118
6.5646834 35.878403 -0.63596565
6.6865249 35.906746 -0.63683826
6.7992916 35.885563 -0.63683826
6.9176636 35.893486 -0.63736188
7.043838 35.940262 -0.63858354
6.0492096 35.944649 -0.84532857
6.1688757 35.964878 -0.84625703
6.2852688 35.965019 -0.84672123
6.3982205 35.945099 -0.84672123
6.50668 35.864658 -0.84532857
6.6229458 35.863705 -0.84579277
6.7411337 35.872192 -0.84648907
6.8612986 35.890118 -0.84741753
6.9740124 35.868389 -0.84741753
7.0963488 35.89534 -0.84857804
5.9819961 35.950722 -1.0423311
6.1028562 35.940544 -1.0426174
6.2208462 35.950741 -1.043476
6.3389602 35.960552 -1.0443345
6.4448314 35.901108 -1.0431898
6.5503907 35.841354 -1.042045
6.6666288 35.840248 -1.0426174
6.7903423 35.878056 -1.0443345
6.903018 35.856548 -1.0443345
7.0233102 35.873924 -1.0454793
7.1437984 35.890896 -1.0466242
5.9583664 35.946945 -1.2710396
6.0745964 35.947758 -1.2717376
6.1925874 35.958042 -1.2727846
6.3135266 35.947151 -1.2731336
6.4158549 35.868114 -1.2710396
6.5267096 35.837952 -1.2706907
6.6429257 35.836922 -1.2713886
6.7610345 35.845337 -1.2724357
6.8855252 35.852161 -1.2734826
7.0077062 35.879398 -1.2752277
7.1184368 35.847401 -1.2748786
