# .PCD v0.7 - Point Cloud Data file format
VERSION 0.7
FIELDS x y z
SIZE 4 4 4
TYPE F F F
COUNT 1 1 1
WIDTH 357
HEIGHT 1
VIEWPOINT 0 0 0 1 0 0 0
POINTS 357
DATA ascii
10.215837 24.980991 0.15522
10.267042 24.895102 0.15487443
10.256886 24.65036 0.15354973
10.260782 24.442808 0.15245542
10.326185 24.371817 0.15222503
10.394841 24.320864 0.15210985
10.459321 24.260538 0.15193705
10.515554 24.181705 0.15164909
10.583452 24.130228 0.15153389
10.671334 24.1243 0.15170668
10.759283 24.118055 0.15187946
10.843198 24.102379 0.15199465
10.943649 24.122833 0.15234022
11.023535 24.097431 0.15239781
11.078249 24.017277 0.15210985
11.157859 23.991425 0.15216744
11.224685 23.938143 0.15205225
11.299732 23.891748 0.15199465
11.370441 23.847099 0.15193705
11.44097 23.802248 0.15187946
11.54184 23.82019 0.15222503
10.208543 24.898386 0.0046896995
10.233202 24.736824 0.0046652649
10.199182 24.43692 0.0046146503
10.24486 24.331026 0.0046006874
10.321257 24.298717 0.0046006874
10.386022 24.227592 0.0045937062
10.462337 24.183838 0.0045919609
10.53026 24.132521 0.0045884703
10.614075 24.117626 0.0045919609
10.689787 24.084164 0.0045919609
10.789787 24.116238 0.0046041785
10.890166 24.136915 0.0046146503
10.986641 24.148098 0.0046233772
11.066659 24.111532 0.0046233772
11.121353 24.031269 0.0046146503
11.192577 23.987146 0.004612905
11.267877 23.951866 0.004612905
11.33878 23.907314 0.0046111597
11.418141 23.880598 0.004612905
9.9605646 25.340536 1.0872408
10.015038 25.233074 1.0840442
10.07939 25.164389 1.082446
10.147154 25.104811 1.0812472
10.211465 25.024771 1.0792494
10.274261 24.96664 1.0780506
10.333989 24.877071 1.0756532
10.377312 24.761555 1.072057
10.423904 24.655212 1.0688604
10.516994 24.659103 1.0704587
10.424541 24.231291 1.053277
10.512444 24.018871 1.0468838
10.499033 23.784645 1.0380932
10.504595 23.596375 1.0313004
10.537726 23.472111 1.0273046
10.603165 23.420687 1.0265055
10.693295 23.423618 1.0281038
11.508795 23.990654 1.0624672
11.475305 23.729519 1.0524778
11.514751 23.621508 1.0492814
11.509549 23.423813 1.042089
11.551658 23.313898 1.0388924
11.589111 23.205986 1.0356958
11.626013 23.098066 1.0324992
11.657816 22.981239 1.028903
11.711752 22.908918 1.0273046
11.765349 22.836489 1.0257064
11.837044 22.79941 1.0257064
11.899341 22.744406 1.0249072
11.96607 22.698074 1.0245076
12.037316 22.66037 1.0245076
12.121834 22.637943 1.0253068
12.202383 22.617338 1.026106
12.282933 22.596441 1.0269051
12.35866 22.566505 1.0273046
12.419832 22.510075 1.0265055
12.472008 22.446924 1.0253068
12.536609 22.388006 1.0245076
12.606878 22.348513 1.0245076
12.662207 22.28274 1.023309
12.770802 22.301317 1.026106
10.161245 25.003784 -0.12699324
10.230212 24.726923 -0.12590945
10.204237 24.434498 -0.12459002
10.238233 24.300955 -0.12407169
10.314523 24.268673 -0.12407169
10.382829 24.217768 -0.12397745
10.4549 24.175848 -0.12393033
10.52258 24.135557 -0.1238832
10.598532 24.091377 -0.12383608
10.690387 24.094526 -0.12402457
10.79462 24.124716 -0.12435442
10.907483 24.161697 -0.1247314
10.99992 24.163712 -0.12491988
11.079947 24.138123 -0.124967
11.134717 24.057823 -0.1247314
11.20178 24.004602 -0.12463715
11.285663 23.987385 -0.1247314
11.378108 23.987953 -0.12491988
10.259705 24.832193 -0.27627379
10.229898 24.541424 -0.27339056
10.244894 24.361698 -0.271743
10.309652 24.301779 -0.2714341
10.378074 24.250889 -0.27122816
10.45024 24.208986 -0.2711252
10.526254 24.176033 -0.2711252
10.606172 24.152 -0.27122816
10.694145 24.145988 -0.27153707
10.786266 24.14879 -0.27194896
10.88674 24.169479 -0.2725668
10.979162 24.171576 -0.27297869
11.063425 24.144121 -0.27308163
11.135023 24.100172 -0.27297869
11.206453 24.056009 -0.27287573
11.290487 24.038778 -0.27308163
10.081599 25.15274 0.79362011
10.156833 25.111671 0.79332691
10.224344 25.051874 0.79244739
10.28453 24.962374 0.79068834
10.335542 24.876364 0.78892934
10.347995 24.687037 0.78394538
10.31302 24.376389 0.77515012
10.326799 24.196762 0.77045935
10.39091 24.136658 0.76957989
10.462704 24.094727 0.76928669
10.526333 24.034262 0.76840717
10.597747 23.991932 0.76811397
10.608014 23.812416 0.7634232
10.654108 23.715143 0.76137102
10.74917 23.727085 0.76283687
11.320928 23.969179 0.77632284
11.357525 23.852259 0.77368432
11.376191 23.699303 0.76987308
11.398361 23.555466 0.76635498
11.441642 23.456648 0.76430279
11.506469 23.402639 0.7637164
11.540001 23.285763 0.76107782
11.590772 23.204681 0.75961196
11.645186 23.121473 0.75814611
11.726809 23.102606 0.75873244
11.772025 23.012253 0.75697345
11.839692 22.966267 0.75668025
11.920995 22.946701 0.75726658
12.016191 22.953421 0.75873244
10.123378 25.076324 0.62692356
10.179478 24.988844 0.6255309
10.223729 24.87352 0.62344193
10.252041 24.721226 0.62042457
10.244788 24.485989 0.61531818
10.271128 24.333944 0.61230075
10.308363 24.209572 0.60997969
10.388864 24.164255 0.60974753
10.460748 24.122328 0.60951549
10.536475 24.089348 0.60951549
10.587893 24.001244 0.60812283
10.655127 23.949591 0.60765862
10.730222 23.926996 0.60789067
10.970087 24.257547 0.61717504
11.046319 24.211939 0.61694294
11.109806 24.149864 0.61624658
11.177204 24.096704 0.61578238
11.23591 24.025249 0.61485398
11.29854 23.962704 0.61415762
11.317987 23.809704 0.61114025
11.340893 23.66584 0.60835493
11.393442 23.585085 0.60719442
11.454349 23.522211 0.60649806
11.506176 23.441233 0.60533756
11.553163 23.351204 0.60394484
11.617149 23.285925 0.60324854
11.699224 23.267179 0.6037128
11.790334 23.265984 0.6046412
10.111782 25.095112 0.47627914
10.183035 25.044699 0.47592664
10.204727 24.873835 0.47328258
10.236921 24.730799 0.47116736
10.230206 24.484535 0.46711317
10.283768 24.396996 0.46605554
10.340806 24.31856 0.4651742
10.409266 24.267578 0.46482167
10.465353 24.199877 0.4641166
10.52933 24.139387 0.46358779
10.593209 24.067734 0.46288273
10.664707 24.0252 0.46270645
10.760558 24.037205 0.46358779
10.897835 24.128954 0.46605554
10.99845 24.149195 0.46711317
11.061752 24.087261 0.46658435
11.133165 24.04332 0.46640807
11.204411 23.999166 0.46623182
11.271232 23.945759 0.46587929
11.303541 23.819899 0.4641166
11.352422 23.730156 0.46305895
11.409538 23.658354 0.46235391
11.47506 23.60441 0.46200135
11.527154 23.523355 0.46112001
11.596238 23.467073 0.46076748
11.683289 23.457371 0.46129629
10.152733 25.005156 0.31984153
10.216627 24.925095 0.31924814
10.241364 24.763519 0.31758663
10.22665 24.509764 0.3147383
10.264784 24.385365 0.31355152
10.329608 24.325388 0.31319547
10.39023 24.25605 0.31272075
10.454474 24.195755 0.31236473
10.518442 24.135296 0.31200868
10.58616 24.083826 0.3117713
10.669888 24.068727 0.31200868
10.753612 24.053345 0.31224602
10.849679 24.065018 0.31283942
10.945927 24.076326 0.31343284
11.034049 24.058071 0.31367019
11.096974 23.996065 0.31331414
11.172316 23.961079 0.31331414
11.226253 23.880621 0.31272075
11.288365 23.818132 0.31236473
11.350195 23.755487 0.31200868
11.416096 23.701693 0.3117713
11.490498 23.665712 0.3117713
11.582111 23.654417 0.31212735
11.696209 23.698608 0.31319547
10.327398 24.771189 -1.0810107
10.366446 24.646511 -1.0769801
10.338849 24.354448 -1.0656943
10.376006 24.229984 -1.0616637
10.448112 24.188095 -1.0612607
10.520057 24.145992 -1.0608577
10.599876 24.121975 -1.0612607
10.679662 24.097687 -1.0616637
10.763461 24.082262 -1.0624698
10.859581 24.093884 -1.0644852
10.972409 24.141525 -1.0681127
11.077322 24.170525 -1.0709342
11.195107 24.226313 -1.0749648
10.266673 24.75666 -1.243301
10.309713 24.641342 -1.2391242
10.270557 24.332735 -1.2252015
10.327383 24.254395 -1.222881
10.411701 24.229191 -1.223345
10.491992 24.19453 -1.223345
10.571949 24.170605 -1.2238091
10.65589 24.155554 -1.2247374
10.735794 24.131081 -1.2252015
10.835945 24.162928 -1.2284501
10.940607 24.192482 -1.2316988
11.045574 24.221611 -1.2349473
10.172265 24.819504 -1.4036503
10.227284 24.732058 -1.4005102
10.263075 24.58742 -1.3942299
10.208471 24.242146 -1.3764356
10.296292 24.23753 -1.3780057
10.364528 24.186701 -1.376959
10.452347 24.181522 -1.3785291
10.524041 24.150406 -1.3785291
10.620152 24.151937 -1.3806225
10.708132 24.145838 -1.3821926
10.812475 24.17589 -1.3858562
10.913127 24.185411 -1.3884729
11.022142 24.223722 -1.3926598
10.087404 24.931328 -1.5531583
10.210131 24.773373 -1.5473845
10.24572 24.639786 -1.5410331
10.176248 24.257677 -1.5190927
10.244629 24.207197 -1.5179379
10.328467 24.193256 -1.5190927
10.41232 24.179028 -1.5202475
10.492206 24.155355 -1.5208249
10.572057 24.131411 -1.5214022
10.672033 24.152866 -1.5248666
10.755987 24.137459 -1.5260214
10.856324 24.15818 -1.5294856
10.948666 24.16032 -1.5317951
11.061934 24.196514 -1.5364141
10.116066 25.124187 -1.7299469
10.187251 24.836725 -1.7146263
10.234203 24.741835 -1.7101578
10.250426 24.562187 -1.6999441
10.192414 24.196945 -1.6769632
10.287896 24.21073 -1.680155
10.375691 24.205811 -1.68207
10.45564 24.182257 -1.6827084
10.543518 24.176737 -1.6846236
10.623446 24.152626 -1.685262
10.711402 24.146505 -1.6871771
10.803498 24.149178 -1.6897304
10.90392 24.169704 -1.6935605
11.000461 24.18075 -1.6967523
11.105482 24.209574 -1.7012209
10.245518 24.954071 -0.47016782
10.316872 24.69726 -0.46650282
10.309416 24.450993 -0.46248877
10.347061 24.326469 -0.46074352
10.411609 24.266277 -0.46021995
10.479863 24.21509 -0.45987087
10.551885 24.172886 -0.45969638
10.631797 24.148767 -0.45987087
10.711662 24.124388 -0.4600454
10.811902 24.145378 -0.46109259
10.900051 24.138626 -0.46161613
11.013102 24.186169 -0.46318686
11.101538 24.178715 -0.46371043
11.173241 24.134647 -0.4635359
11.257471 24.117544 -0.46388495
9.8177195 24.703411 -1.8886527
9.8915634 24.663189 -1.8879429
10.017632 24.752199 -1.8971698
10.095341 24.720606 -1.8971698
10.001986 24.273739 -1.8652309
10.024593 24.113247 -1.8552943
10.119581 24.127628 -1.8588431
10.214759 24.141653 -1.8623919
10.294463 24.11862 -1.8631017
10.402278 24.137499 -1.8673602
10.478053 24.104702 -1.8673602
10.561748 24.089933 -1.8687798
10.649472 24.084002 -1.8709089
10.745389 24.095982 -1.8744577
10.85121 23.939037 -1.8673602
11.0757 24.220428 -1.8922015
10.309062 24.567451 -0.61763299
10.296566 24.323193 -0.61229455
10.361149 24.263144 -0.61159825
10.441828 24.217648 -0.61136615
10.517856 24.184725 -0.61136615
10.589764 24.142408 -0.61113405
10.669598 24.118164 -0.61136615
10.757542 24.111912 -0.61206245
10.849527 24.125481 -0.61322302
10.958302 24.164114 -0.61507982
11.054996 24.164011 -0.61600822
11.147613 24.165472 -0.61693668
10.319083 24.721756 -0.76586443
10.33114 24.521595 -0.76071286
10.32209 24.286634 -0.75441647
10.382577 24.21734 -0.75327176
10.458616 24.184599 -0.75327176
10.53032 24.153465 -0.75327176
10.602121 24.111115 -0.75298554
10.694183 24.103235 -0.75384414
10.782099 24.096891 -0.75470269
10.890653 24.135782 -0.75699228
10.991342 24.145023 -0.75842327
11.087991 24.155796 -0.75985426
11.184816 24.166199 -0.76128525
10.297249 24.703064 -0.93321252
10.301157 24.495573 -0.92658162
10.29215 24.260704 -0.91890377
10.360445 24.209877 -0.91820574
10.432486 24.168036 -0.91785675
10.500387 24.116812 -0.91715872
10.588158 24.111156 -0.91820574
10.66385 24.077776 -0.91820574
10.763903 24.098902 -0.92029971
10.872417 24.137854 -0.92309165
10.977137 24.167267 -0.92553461
11.073879 24.167072 -0.92693061
