# .PCD v0.7 - Point Cloud Data file format
VERSION 0.7
FIELDS x y z
SIZE 4 4 4
TYPE F F F
COUNT 1 1 1
WIDTH 227
HEIGHT 1
VIEWPOINT 0 0 0 1 0 0 0
POINTS 227
DATA ascii
-12.626296 14.344268 -0.089861266
-12.587751 14.391393 -0.089908391
-12.539568 14.325765 -0.19564673
-12.586346 14.470739 -0.19708833
-12.530279 14.492887 -0.1968824
-12.458185 14.045276 -0.75574017
-12.361129 14.024393 -0.75251567
-12.475058 14.243508 -0.76218915
-12.410565 14.260022 -0.76097995
-12.640305 14.616286 -0.7779085
-12.398895 14.428635 -0.76581669
-12.671538 14.839758 -0.78556669
-12.262727 14.452934 -0.7629953
-12.139946 14.39974 -0.7581585
-12.081813 14.42249 -0.75735235
-12.247462 14.713741 -0.77065337
-12.029179 14.544306 -0.75977081
-11.812078 14.373647 -0.74888813
-11.773188 14.418421 -0.74929118
-11.763085 14.503934 -0.75170952
-11.679833 14.494146 -0.74929118
-11.627992 14.522972 -0.74888813
-11.681876 14.684509 -0.75533706
-12.579548 14.131695 -0.87713283
-12.54833 14.186107 -0.87806106
-12.629017 14.367998 -0.88687873
-12.393229 14.18944 -0.87342012
-12.276562 14.145324 -0.8683151
-12.362552 14.335106 -0.87759697
-12.356462 14.419378 -0.88038146
-12.388822 14.549387 -0.88595062
-12.110747 14.313725 -0.86924326
-12.155723 14.458739 -0.87574053
-12.020573 14.389537 -0.86924326
-12.330038 14.859781 -0.89523238
-11.988723 14.919258 -0.88734281
-11.972963 14.995876 -0.88966334
-11.665018 14.704758 -0.87017149
-11.952716 15.164944 -0.89523238
-12.528615 14.049289 -0.98443931
-12.431436 14.028784 -0.98025244
-12.308117 13.977821 -0.97397208
-12.296201 14.147467 -0.98025244
-12.293338 14.229231 -0.98339254
-12.164021 14.169272 -0.97658896
-12.741554 14.936838 -1.0268314
-12.423396 14.656818 -1.0048503
-12.499507 14.84091 -1.0147941
-12.033766 14.384377 -0.98077583
-12.077875 14.529634 -0.98810279
-12.083042 14.629107 -0.99228966
-11.764635 14.335032 -0.96978521
-12.022438 14.743438 -0.99490654
-12.306839 13.770943 -1.0658476
-12.601485 14.190339 -1.0952941
-12.530432 14.199907 -1.0929847
-11.964407 14.26548 -1.0745083
-11.99684 14.769433 -1.0981811
-11.913077 14.952131 -1.1033775
-12.550561 14.159354 -1.2077711
-12.716828 14.808903 -1.2460725
-12.540646 14.696985 -1.2333053
-12.407981 14.822176 -1.2339437
-12.240059 14.715342 -1.2218149
-12.064784 14.059943 -0.32269499
-11.877787 13.930436 -0.31885546
-11.879222 14.02107 -0.32007715
-11.828674 14.050673 -0.3199026
-11.907359 14.608679 -0.32827976
-11.873998 14.66155 -0.32862881
-12.217746 13.749485 -1.3059455
-12.187695 13.802755 -1.3073651
-12.164012 13.863465 -1.3094943
-12.094173 13.871542 -1.3066553
-12.037473 13.89439 -1.3052357
-11.987252 13.924582 -1.304526
-11.923996 13.939433 -1.3023969
-11.893064 13.992024 -1.3038162
-11.810429 13.983599 -1.2995578
-11.798502 14.058834 -1.3031064
-11.74789 14.08817 -1.3023969
-11.662926 14.080962 -1.2981383
-11.589393 14.077004 -1.2945895
-11.631059 14.223454 -1.304526
-11.542283 14.205736 -1.2995578
-11.641725 14.420423 -1.3158821
-11.459041 14.285758 -1.3002676
-11.451407 14.368487 -1.304526
-11.375248 14.365294 -1.3009773
-11.36707 14.447994 -1.3052357
-11.284764 14.436483 -1.3009773
-11.25771 14.495497 -1.3031064
-11.248684 14.578172 -1.3073651
-11.22455 14.647059 -1.310204
-11.214738 14.729868 -1.3144627
-11.252665 14.87639 -1.3243991
-11.139945 14.82396 -1.3165919
-11.075418 14.834907 -1.3144627
-11.070361 14.925704 -1.3194309
-10.940563 14.847994 -1.3094943
-10.958684 14.97082 -1.3173016
-10.946798 15.053576 -1.32156
-11.033818 15.273849 -1.3378845
-10.979961 15.300335 -1.3371748
-10.937633 15.342875 -1.3378845
-10.941263 15.450418 -1.3442721
-10.950071 15.566293 -1.3513697
-10.798257 15.453452 -1.3385941
-10.846361 15.626593 -1.35066
-10.780226 15.635958 -1.3485308
-10.680321 15.595682 -1.3421429
-10.580772 15.554936 -1.3357552
-10.58212 15.66248 -1.3421429
-10.49122 15.639504 -1.3371748
-10.607979 15.921402 -1.3584672
-10.464317 15.813245 -1.3464015
-10.370755 15.77936 -1.3407234
-10.332036 15.828568 -1.3421429
-10.363662 15.986488 -1.3527893
-10.264781 15.943492 -1.3464015
-10.257637 16.042885 -1.3520795
-10.260661 16.159235 -1.359177
-10.119387 16.047962 -1.3471112
-10.166684 16.242065 -1.3605965
-10.07874 16.21463 -1.3556284
-10.053952 16.288649 -1.359177
-10.002728 16.320156 -1.359177
-10.044767 16.504864 -1.3719527
-9.9051485 16.391218 -1.3598868
-9.8382082 16.396595 -1.3577574
-9.8632364 16.555956 -1.3684038
-9.9178391 16.767141 -1.3833086
-9.708498 16.531595 -1.3613063
-9.7921915 16.794659 -1.3804696
-9.6644144 16.695852 -1.3698233
-9.7034121 16.892138 -1.3833086
-9.5811052 16.801239 -1.3733722
-9.5823402 16.926733 -1.3811793
-9.3971491 16.721981 -1.362016
-9.6361847 17.274055 -1.4046012
-9.3837214 16.946486 -1.3755013
-9.5322647 17.343002 -1.405311
-9.3965063 17.22401 -1.3932451
-9.3281002 17.227133 -1.391116
-9.5100708 17.695648 -1.4266037
-9.285408 17.408611 -1.4010525
-9.3613586 17.684528 -1.4209256
-9.2964773 17.69619 -1.4195061
-9.2454472 17.734154 -1.4202158
-9.1636782 17.720413 -1.416667
-9.1125154 17.75799 -1.4173768
-9.079319 17.830973 -1.4209256
-9.0322514 17.877213 -1.422345
-9.0118141 17.976831 -1.428023
-8.986392 18.06757 -1.4329913
-8.8368778 17.907877 -1.4180865
-8.7849588 17.94451 -1.4187963
-8.7503366 18.016878 -1.422345
-8.7066803 18.071239 -1.4244744
-8.6510057 18.109013 -1.4251841
-8.6154356 18.181168 -1.4287328
-8.5370531 18.163012 -1.4251841
-8.4715214 18.171659 -1.4237646
-8.4060202 18.180075 -1.422345
-8.3405447 18.188263 -1.4209256
-8.3164072 18.28701 -1.4266037
-8.2548113 18.303957 -1.4258939
-8.2094879 18.357113 -1.428023
-8.1881742 18.464876 -1.4344108
-8.1180801 18.463118 -1.4322816
-8.0719948 18.515961 -1.4344108
-7.9425392 18.376423 -1.4216353
-7.9751449 18.612154 -1.4379597
-12.548315 14.12639 -0.43775114
-12.457561 14.11328 -0.43612641
-12.432938 14.174895 -0.43682274
-12.217544 14.017949 -0.43078798
-12.143367 14.200851 -0.43287694
-12.409454 14.604586 -0.44401801
-12.201776 14.544417 -0.43984008
-12.156025 14.582677 -0.43984008
-12.14586 14.669107 -0.44123274
-12.216647 14.844013 -0.44541061
-12.300245 15.046977 -0.45028487
-11.925117 14.682054 -0.43821535
-11.891495 14.735003 -0.43867958
-12.139119 15.138839 -0.44958854
-12.122653 15.215992 -0.45074907
-12.341559 13.932131 -0.53175491
-12.247197 14.001875 -0.53146869
-12.170368 14.002555 -0.5300377
-12.45949 14.426572 -0.54463375
-12.414108 14.465642 -0.54463375
-12.310233 14.436112 -0.54205799
-12.180826 14.375564 -0.53833741
-12.367344 14.689061 -0.54864055
-12.18646 14.566824 -0.54263037
-11.997557 14.438007 -0.53633404
-12.046068 14.683134 -0.54263037
-11.928412 14.727459 -0.54148561
-12.10767 15.045226 -0.55178869
-11.935509 14.927038 -0.54606479
-11.882339 14.956633 -0.54577857
-11.399557 14.53543 -0.52774817
-11.27411 14.758929 -0.53061008
-12.735031 14.365903 -0.66902333
-12.570969 14.270818 -0.66274142
-12.539232 14.325286 -0.66343945
-12.408932 14.266554 -0.65890247
-12.366548 14.303308 -0.65890247
-12.269466 14.281431 -0.65611053
-12.080317 14.337391 -0.65331858
-12.041626 14.382937 -0.65366757
-12.181669 14.643557 -0.66378844
-12.180158 14.735689 -0.66623139
-12.292324 14.967001 -0.67495626
-12.232609 14.990057 -0.67425829
-12.0722 14.888649 -0.66797632
-12.156985 15.089973 -0.67530525
-11.603823 14.495972 -0.64703661
-11.583098 14.563651 -0.64843267
-11.512514 14.568594 -0.64703661
-11.454349 14.588968 -0.6463387
-11.43304 14.656405 -0.64773464
-11.421083 14.741651 -0.64982861
-11.380811 14.785378 -0.6501776
-11.322165 14.80518 -0.64947957
