# .PCD v0.7 - Point Cloud Data file format
VERSION 0.7
FIELDS x y z
SIZE 4 4 4
TYPE F F F
COUNT 1 1 1
WIDTH 79
HEIGHT 1
VIEWPOINT 0 0 0 1 0 0 0
POINTS 79
DATA ascii
-19.420874 11.206479 -1.2944911
-19.220863 11.252593 -1.2858303
-19.254208 11.353503 -1.2904494
-19.235607 11.424138 -1.291604
-19.165358 11.464003 -1.2892946
-19.120697 11.519004 -1.2887173
-19.033213 11.547932 -1.2852529
-19.047943 11.638915 -1.2887173
-18.985783 11.682994 -1.286985
-18.929966 11.735365 -1.2858303
-18.920469 11.807341 -1.2875624
-18.849476 11.84547 -1.2852529
-18.896517 11.958031 -1.2910267
-18.823092 11.999156 -1.2887173
-18.787407 12.054952 -1.2887173
-18.766209 12.124757 -1.2898721
-18.742628 12.197816 -1.2910267
-18.578983 12.174528 -1.2823659
-18.498989 12.205334 -1.2794791
-18.510437 12.296549 -1.2829434
-18.529795 12.393503 -1.286985
-18.523886 12.473971 -1.2892946
-18.525917 12.560122 -1.2921815
-18.478121 12.612634 -1.291604
-18.306784 12.580123 -1.2823659
-18.283587 12.64894 -1.2835208
-18.366623 12.791929 -1.2921815
-18.34269 12.861035 -1.2933363
-18.285887 12.907077 -1.2921815
-18.163879 12.906616 -1.2864076
-18.107008 12.951995 -1.2852529
-18.082426 13.020488 -1.2864076
-18.098007 13.118257 -1.2904494
-18.048641 13.169165 -1.2898721
-18.015226 13.23171 -1.2904494
-17.877253 13.217001 -1.2835208
-17.739552 13.20155 -1.2765921
-17.719639 13.278272 -1.2783244
-17.632345 13.294714 -1.27486
-17.630245 13.380231 -1.2777469
-17.577848 13.432553 -1.2771695
-17.511827 13.469447 -1.2754375
-17.461535 13.51828 -1.27486
-17.387482 13.54852 -1.2725505
-17.384106 13.633889 -1.2754375
-17.286343 13.645126 -1.2713958
-17.087088 13.575123 -1.2598481
-17.130108 13.697341 -1.2661994
-17.086992 13.751087 -1.2661994
-17.090244 13.842414 -1.2696636
-17.023464 13.877104 -1.2679315
-16.972065 13.924185 -1.267354
-16.905149 13.958359 -1.2656219
-16.861214 14.011401 -1.2656219
-16.763517 14.019456 -1.2615802
-16.665934 14.027039 -1.2575386
-16.637018 14.092234 -1.2586933
-16.539492 14.099085 -1.2546517
-16.419363 14.085952 -1.2488778
-16.375027 14.137467 -1.2488778
-16.275326 14.145831 -1.2448361
-16.238316 14.203468 -1.2454135
-16.163647 14.228017 -1.243104
-16.096455 14.258864 -1.2413719
-16.098785 14.346423 -1.2448361
-16.068499 14.41026 -1.245991
-16.023148 14.460672 -1.245991
-15.952942 14.493583 -1.2442588
-15.899966 14.536888 -1.2436813
-15.832182 14.566486 -1.2419493
-15.793668 14.622935 -1.2425267
-15.747648 14.672482 -1.2425267
-15.749868 14.77244 -1.2465683
-15.645313 14.767014 -1.2419493
-15.608668 14.820245 -1.2425267
-15.460999 14.772629 -1.2344432
-15.414515 14.821126 -1.2344432
-15.372454 14.879107 -1.2350206
-15.397134 14.997001 -1.2407945
