# .PCD v0.7 - Point Cloud Data file format
VERSION 0.7
FIELDS x y z
SIZE 4 4 4
TYPE F F F
COUNT 1 1 1
WIDTH 150
HEIGHT 1
VIEWPOINT 0 0 0 1 0 0 0
POINTS 150
DATA ascii
0.24203999 1.4709001 2.3592
0.2448425 1.49275 2.359
0.24343 1.5013 2.3597
0.23119749 1.3708583 2.3738418
0.27654999 1.3666667 2.3692334
0.23602666 1.3926834 2.3740332
0.23531666 1.4085667 2.3732135
0.24031 1.4177001 2.3671
0.23498124 1.4300188 2.3739936
0.23464167 1.4559666 2.3742332
0.24466714 1.449157 2.370157
0.23588002 1.4696333 2.3710048
0.240045 1.47455 2.37115
0.23480237 1.4901706 2.3723354
0.24306333 1.4836999 2.3630002
0.23736499 1.5027833 2.3725336
0.24032 1.5037 2.3652
0.22935177 1.3703772 2.3899276
0.25469667 1.3655 2.3869333
0.27544999 1.3613 2.3982999
0.29215002 1.3640999 2.3847749
0.23386265 1.3912789 2.391726
0.23462045 1.4091958 2.3895481
0.240795 1.41535 2.3938498
0.23485601 1.4273551 2.3892102
0.24207999 1.4310001 2.3931665
0.23549899 1.45261 2.3911052
0.24423859 1.4448429 2.3862858
0.23602541 1.4698958 2.3897088
0.23412167 1.4908791 2.3914876
0.233408 1.5018799 2.3891799
0.22708292 1.3705252 2.4097586
0.27312499 1.3638999 2.40135
0.28134 1.3642 2.4119
0.23092167 1.390761 2.4104612
0.23468825 1.4103342 2.4111419
0.23493275 1.4278001 2.4123361
0.23402144 1.4495929 2.4110034
0.23417042 1.468732 2.409956
0.23406421 1.4882736 2.4091787
0.234605 1.5026901 2.4075401
0.22595917 1.3710293 2.4289999
0.24932 1.36455 2.4382
0.275435 1.3638999 2.4309502
0.29031 1.3634501 2.4254999
0.23298307 1.3918303 2.4308174
0.24025001 1.3994 2.4389999
0.23438857 1.4107475 2.429805
0.24027 1.4111 2.4378669
0.23480649 1.430545 2.429445
0.241165 1.424 2.4331498
0.23298414 1.4500208 2.4303
0.23493339 1.4692172 2.4300411
0.23372348 1.4911737 2.4282348
0.23436399 1.50182 2.4291399
0.22928834 1.3698833 2.4490891
0.27007002 1.3635499 2.4510999
0.28090501 1.3636 2.4414001
0.2337721 1.3928369 2.4516103
0.2350532 1.4087136 2.4489048
0.24209499 1.41845 2.4493999
0.23400408 1.4314181 2.4495773
0.24234001 1.4210333 2.4489
0.23422964 1.4489846 2.4492533
0.23370631 1.4704629 2.4498816
0.23389716 1.489543 2.4465964
0.22804682 1.3696789 2.4692366
0.26931199 1.36322 2.46524
0.23277226 1.3912228 2.4720137
0.23443335 1.4086602 2.4686401
0.24229665 1.4140333 2.4764667
0.23487815 1.4302925 2.4689593
0.23396721 1.4512841 2.4684038
0.23330101 1.4698248 2.4683998
0.22683406 1.3715318 2.4899728
0.26779002 1.3635571 2.4862144
0.2337161 1.3914218 2.4899609
0.23441897 1.4111897 2.4912686
0.24123 1.4124 2.4806001
0.23408069 1.4306928 2.4887254
0.23378539 1.4488832 2.4913623
0.23411964 1.4696777 2.4892149
0.23450041 1.4888458 2.4883206
0.22815907 1.3707666 2.5089049
0.27125999 1.3637166 2.5093501
0.28147 1.3619 2.5090001
0.2329056 1.3906082 2.5110798
0.23485088 1.4101219 2.5107741
0.24081667 1.4087667 2.5073001
0.23352651 1.42915 2.50967
0.23388749 1.4493126 2.5100186
0.24059001 1.4500999 2.5149
0.23308729 1.4714137 2.5111361
0.23399304 1.4894781 2.5101087
0.24113999 1.4938 2.5019
0.22653686 1.3705841 2.527684
0.25076666 1.3626667 2.5323334
0.23160236 1.3916882 2.5311356
0.24021 1.3992 2.5229001
0.23509119 1.410153 2.5307114
0.24073666 1.4037666 2.5258999
0.2336615 1.4297538 2.5290885
0.23458357 1.4491922 2.5289359
0.23445201 1.4695851 2.53002
0.230765 1.3592 2.5539999
0.22627293 1.3696117 2.5511055
0.2320842 1.3911685 2.5498841
0.23374841 1.4093632 2.5487208
0.23313479 1.431084 2.5487559
0.23393402 1.4508553 2.5478897
0.23310123 1.4705249 2.5504792
0.22706284 1.370138 2.5692382
0.25609499 1.362675 2.5745499
0.26193666 1.3615999 2.5632999
0.23316748 1.3898399 2.5706699
0.2330495 1.4098525 2.5711892
0.23268408 1.4297923 2.5694108
0.23217237 1.449984 2.5692999
0.24184 1.4463 2.576
0.23378 1.469725 2.5700152
0.22806123 1.3654126 2.591475
0.23519635 1.393991 2.5904639
0.24053249 1.39485 2.5882499
0.23179092 1.4102452 2.5911043
0.23447523 1.4304429 2.589005
0.23206539 1.4512793 2.5886586
0.22805707 1.3692822 2.6086292
0.25503001 1.3608 2.6013999
0.27003798 1.3617799 2.6097598
0.23588835 1.391225 2.608175
0.243865 1.3905001 2.60355
0.23262833 1.4103376 2.6101668
0.23304261 1.4310478 2.6097476
0.23248336 1.4504999 2.6106296
0.2339119 1.4707615 2.6095076
0.22768 1.3594 2.6259
0.22813314 1.3687438 2.6301501
0.23442525 1.3912001 2.6291211
0.23363955 1.4090477 2.6304433
0.23264769 1.4296925 2.6312306
0.23313546 1.4502953 2.6305773
0.22834298 1.36958 2.6503599
0.24383 1.3755 2.6410999
0.2315177 1.3898386 2.6506617
0.2340062 1.4103239 2.6494045
0.23516282 1.4299095 2.6476476
0.23372719 1.449068 2.6504002
0.23456538 1.4711334 2.6496038
0.23212001 1.3943 2.6619
0.23172501 1.418 2.6627998
