# .PCD v0.7 - Point Cloud Data file format
VERSION 0.7
FIELDS x y z
SIZE 4 4 4
TYPE F F F
COUNT 1 1 1
WIDTH 593
HEIGHT 1
VIEWPOINT 0 0 0 1 0 0 0
POINTS 593
DATA ascii
0.88076001 0.95617497 3.17155
0.94267493 0.95446748 3.173975
0.57770002 0.972 3.1703999
0.63937998 0.977 3.1702001
0.64405191 0.97391206 3.1707199
0.71437335 0.97476822 3.171325
0.77415502 0.97745001 3.17255
0.80097997 0.97482502 3.1728001
0.97065502 0.97538 3.176425
0.41068402 0.99668598 3.1746399
0.42512 0.98197502 3.1761999
0.63561833 0.98363 3.1766834
0.64164001 0.98637998 3.1789
0.69210666 0.98659331 3.1780665
0.70682114 0.98514897 3.1767998
0.74697 0.99233001 3.1722
0.77247733 0.98521906 3.1775818
0.78499335 0.98212665 3.1719332
0.836366 0.98716605 3.1780801
0.84950697 0.98467386 3.1751235
0.86151999 0.98610336 3.171133
0.89924997 0.98833001 3.1796999
0.91054356 0.98524576 3.176059
0.92591333 0.98450828 3.1748836
0.97439003 0.98831218 3.1773999
0.9886961 0.98476064 3.1750002
1.0367 0.98997003 3.1791999
1.0492417 0.98592836 3.1760836
1.0673922 0.98611391 3.174577
1.1136818 0.98527169 3.1759272
1.1291789 0.98604214 3.1755099
1.178275 0.9862175 3.1772001
1.1901046 0.98552775 3.1760771
0.407635 1.0052 3.1654749
0.39866 1.05435 3.1684
0.40124249 1.055775 3.1761749
0.46901098 1.05601 3.1721299
0.60781097 1.05629 3.1676898
0.68437362 1.0547364 3.1676636
0.76362503 1.0559 3.1733999
1.0132999 1.0595 3.174
1.1283666 1.0561334 3.1784999
1.2645999 1.0537666 3.1785667
0.59534001 1.06675 3.1689999
0.6060214 1.0620285 3.1728287
0.67235839 1.0642232 3.1706767
0.68335325 1.0609001 3.1736333
0.73584002 1.0631499 3.172075
0.7486943 1.0629429 3.17045
0.76086003 1.0609 3.1777
0.79593003 1.077 3.1796999
0.81617242 1.0647625 3.1703875
0.82700509 1.0628625 3.1727877
0.90301281 1.0620143 3.1723573
1.0130501 1.06195 3.1773
1.156575 1.0752 3.176125
1.1835001 1.06155 3.1774499
0.57177001 1.0890501 3.1719999
0.64249003 1.0920501 3.1756001
0.71480775 1.0938777 3.1749001
0.72960997 1.089725 3.1777501
0.74506003 1.0968 3.1698999
0.79028326 1.0941416 3.1755164
0.82094002 1.0816 3.1786001
0.84951895 1.09422 3.1733899
0.87206167 1.0956167 3.1713169
0.91647571 1.0921714 3.1727426
0.9317255 1.092039 3.1724999
0.94296801 1.08726 3.1778998
1.0093706 1.0905411 3.1737471
1.02095 1.0845 3.1729498
1.0872461 1.0866077 3.1767309
1.1069751 1.0924 3.1773
1.17065 1.0853333 3.17875
0.34182 1.1197 3.1675999
0.40904999 1.1199 3.1675
0.71094161 1.1046332 3.1779165
0.72969997 1.10235 3.1786499
0.78279006 1.10408 3.1763
0.83128607 1.10326 3.1707802
0.84917998 1.1029334 3.1777999
0.86627001 1.101 3.177
0.89836001 1.1145501 3.1763
0.91472888 1.1050668 3.1765559
0.9248085 1.1035715 3.1760571
0.97662252 1.1039749 3.1788502
0.99111748 1.1043583 3.1761916
1.0504334 1.105311 3.1766
1.0677909 1.1043273 3.1752729
1.1180251 1.103125 3.1772752
1.1304133 1.1047066 3.17592
1.1417667 1.1046333 3.1762667
1.1908858 1.1038429 3.1758647
1.207891 1.1049454 3.176136
1.3175 1.1021 3.1784
0.34321997 1.1256286 3.1728141
0.39980999 1.1303999 3.1691999
0.41071469 1.13164 3.1716268
0.85512 1.1202 3.1798999
0.39936 1.1782 3.1643
0.40509999 1.1788 3.1719999
0.61348999 1.1776199 3.1719201
0.68594003 1.1789333 3.1733665
0.76300001 1.1779 3.1717
0.39366001 1.19085 3.1736
0.40385875 1.1860625 3.1724002
0.45748502 1.1928501 3.1716499
0.46745843 1.1872692 3.1717
0.59976 1.196 3.1796
0.61116654 1.1877952 3.17154
0.62216663 1.1839 3.1774333
0.68598413 1.1860417 3.1710167
0.81816 1.19275 3.1712999
0.84094 1.1853 3.1717999
1.29422 0.93358803 3.19592
1.2892444 0.9555434 3.1896446
0.71082002 0.97974002 3.1914001
0.8572225 0.97728002 3.18835
0.87050998 0.9770875 3.1826248
0.93236893 0.9776389 3.1874111
0.94212002 0.97233498 3.1809502
0.99841332 0.97532004 3.1842
1.0063667 0.97308332 3.1840332
1.0752642 0.97633076 3.1878071
1.0827501 0.97141504 3.1877999
1.1498417 0.97297996 3.1862085
1.2169571 0.97564143 3.1886287
1.221175 0.96992999 3.1855249
1.2790999 0.97732002 3.1830001
1.2890874 0.97137129 3.191756
0.40977874 0.99450868 3.1850126
0.61608601 0.99397004 3.1865401
0.63000751 0.9927488 3.1834874
0.64315999 0.987486 3.1826799
0.69161254 0.99243408 3.1835334
0.70581537 0.99045825 3.1902909
0.75625253 0.99744749 3.1872499
0.7726832 0.99234056 3.1897581
0.78112668 0.98556668 3.198
0.83125085 0.99496585 3.1849003
0.85057247 0.98852623 3.188081
0.89578247 0.99533999 3.1834502
0.91143644 0.9948765 3.1863999
0.92584145 0.98722774 3.1923616
0.97219718 0.99671996 3.183157
0.99170762 0.98981756 3.1871996
1.0082999 0.98632002 3.1912
1.0333667 0.99444669 3.1848164
1.0512235 0.9943924 3.1848354
1.0674446 0.98932332 3.1919553
1.11085 0.99495298 3.1832097
1.1323922 0.9929381 3.1900229
1.1417667 0.9861179 3.1936555
1.1750001 0.99571329 3.1833165
1.18999 0.99412996 3.1831501
1.2090904 0.98967791 3.1898749
1.250977 0.99466389 3.1823153
1.2719308 0.99317724 3.1866169
1.2892201 0.98887563 3.1943495
1.3144445 0.99516666 3.1835222
1.3307477 0.9948172 3.1833906
1.3431667 0.9930684 3.1827834
0.35474002 1.00755 3.1891501
0.3996 1.0051 3.188
0.40346751 1.0035501 3.1894751
0.61441797 1.0024199 3.19068
0.62263006 1.0048 3.1918666
0.69220001 1.00416 3.1912398
0.74988222 1.0071223 3.1947222
0.76663148 1.0049143 3.1915572
0.81811333 1.0042332 3.1932333
0.83124006 1.004591 3.1916635
0.84153003 1.0042334 3.1922333
0.89399785 1.0051444 3.1921892
0.90855885 1.0031667 3.1886444
0.95866001 1.0074 3.1935
0.96973062 1.004675 3.1890502
0.98558599 1.00182 3.18768
1.0344 1.0056876 3.1897125
1.0497313 1.0047126 3.1887627
1.1126556 1.0048167 3.1891999
1.1263702 1.0042999 3.1911402
1.1747 1.0044125 3.1882625
1.1895813 1.0044751 3.1883438
1.201 1.002625 3.1928501
1.2392499 1.00635 3.1891
1.2507867 1.0030868 3.1876936
1.2698534 1.0054334 3.18872
1.2896502 1.0101302 3.192796
1.31213 1.00385 3.1876903
1.3290354 1.004547 3.1874058
1.34245 1.0030251 3.186075
1.2847333 1.0206666 3.1867666
0.40953749 1.058375 3.1865249
0.61940998 1.0594 3.1835999
0.62983501 1.0585251 3.1902249
0.69941998 1.0597 3.1824
0.70196003 1.059 3.1800001
0.76696664 1.0564166 3.1870165
0.78182 1.0592 3.1995001
0.83469498 1.0596 3.1821001
0.84337664 1.0575333 3.1821663
0.91077596 1.0585201 3.1826398
0.97094828 1.0582666 3.1837165
0.98881835 1.0573167 3.1840668
1.0397 1.0544 3.1854999
1.0524888 1.056211 3.185611
1.0623332 1.0555 3.1930666
1.1137 1.0577286 3.1821573
1.1330572 1.0556 3.1886356
1.17915 1.0571001 3.1812
1.1930001 1.0552286 3.181886
1.2074333 1.0569445 3.1901112
1.2541167 1.0577167 3.1807833
1.27095 1.0549126 3.1851625
1.28645 1.0574332 3.1898832
1.3191 1.0557333 3.1823666
1.3303417 1.0552334 3.1825917
1.3446285 1.0561286 3.1832001
0.39089501 1.0639999 3.1830001
0.409345 1.06305 3.18765
0.45616999 1.0668666 3.1837332
0.59947997 1.0656 3.1805
0.61252147 1.0652715 3.1846714
0.62508672 1.0621667 3.1907332
0.67530173 1.0653833 3.1821501
0.69189 1.0663 3.1807001
0.70486999 1.0667 3.1835001
0.75066251 1.0656251 3.1839752
0.77036834 1.0648583 3.1882832
0.79649001 1.0764 3.1820998
0.81063992 1.07085 3.1838
0.82829887 1.0664444 3.1844444
0.842875 1.06095 3.18415
0.86738002 1.0622 3.1902001
0.89106137 1.0656143 3.1834998
0.91178608 1.06496 3.1831899
0.9548775 1.070775 3.1844499
0.97051781 1.0646557 3.1844668
0.98865086 1.0660001 3.1843748
1.0310091 1.0715001 3.1833544
1.0518 1.0644 3.1819501
1.0612251 1.065725 3.1835001
1.0946 1.0702 3.1803
1.1100364 1.0665091 3.1824181
1.12658 1.06418 3.1823602
1.1734167 1.0666666 3.182267
1.1905583 1.0654833 3.1827085
1.2036599 1.0642201 3.1833398
1.239 1.0695 3.1800001
1.248943 1.0631714 3.1813428
1.2674333 1.0642582 3.1836414
1.2904 1.0616 3.1877999
1.3077453 1.0643544 3.1843362
1.3292938 1.06435 3.1823497
1.341475 1.063225 3.1851749
0.72176754 1.092925 3.18225
0.79528499 1.0880333 3.1844332
0.81884003 1.0824 3.1808
0.87170166 1.0899833 3.1835668
0.93524998 1.0968667 3.1846836
0.94989431 1.0848714 3.1851141
0.96402395 1.08854 3.1860001
1.0084052 1.0948105 3.1868634
1.0229599 1.08972 3.1863201
1.07708 1.09692 3.18713
1.0860082 1.0964667 3.1876166
1.10572 1.0894601 3.1825202
1.1533778 1.0936668 3.186389
1.1694701 1.08869 3.1820102
1.217025 1.09785 3.1887751
1.228385 1.0938349 3.186815
1.24195 1.0876166 3.1818333
1.2911915 1.0923373 3.1911771
1.3091501 1.0844001 3.1812334
0.40784001 1.117075 3.1937501
0.572285 1.108525 3.1961002
0.61739254 1.1183 3.1911497
0.62945926 1.1112927 3.1868572
0.64164001 1.1047 3.1947
0.69305754 1.1142374 3.1878874
0.70926154 1.110023 3.1877534
0.75510502 1.117275 3.1903749
0.77016175 1.1124294 3.1874411
0.7902686 1.1031001 3.1882999
0.81964999 1.1197 3.1925001
0.83062172 1.116825 3.1894667
0.8475678 1.1116333 3.1883168
0.86302203 1.10314 3.18944
0.89733332 1.1151667 3.1875334
0.91013545 1.1141591 3.1866996
0.92903 1.1056118 3.1900706
0.97366995 1.1134539 3.1859844
0.99201995 1.110872 3.1886337
1.0005 1.1026 3.1954999
1.0351082 1.1111583 3.1862917
1.0513434 1.1141002 3.1863785
1.0691251 1.1077291 3.1917543
1.0953333 1.1014333 3.1879332
1.1127411 1.1134118 3.1863472
1.1302904 1.1128621 3.1872475
1.1446275 1.1055093 3.1914136
1.1753666 1.1138083 3.1874583
1.1882453 1.1119772 3.1859457
1.2092392 1.1088144 3.1899533
1.2268 1.1082001 3.1963665
1.2494818 1.1147635 3.1877456
1.2687622 1.1128095 3.1877561
1.2889911 1.1095412 3.194083
1.3124499 1.1136583 3.1899459
1.3302088 1.1133178 3.1878791
1.343425 1.112525 3.1875875
0.35207 1.1340001 3.19274
0.39961001 1.1359 3.1998999
0.41133666 1.125 3.1874666
0.61457497 1.1254834 3.1973333
0.67749 1.1282001 3.1982999
0.68764156 1.1232538 3.1963079
0.75492299 1.1246899 3.1960602
0.76295334 1.1242334 3.198
0.81959003 1.1282667 3.1977332
0.83090669 1.12514 3.1954734
0.89433849 1.1285307 3.1957312
0.90521008 1.1254112 3.1960666
0.95842338 1.1345667 3.1963999
0.97039723 1.1263716 3.1960046
0.984254 1.1239599 3.1943603
1.0342928 1.1273143 3.1956213
1.0504001 1.1268277 3.1950054
1.0994999 1.1262 3.1932001
1.1099727 1.1256181 3.1953001
1.1287 1.1255667 3.1927414
1.1403 1.1260999 3.1844001
1.1742537 1.1252077 3.1970308
1.1895999 1.1247469 3.1955822
1.21095 1.1321 3.1846499
1.23756 1.1258 3.1952
1.2492561 1.1245126 3.1959255
1.2692666 1.1265583 3.1932583
1.290161 1.1301064 3.1933036
1.3091098 1.1287967 3.1974387
1.3314499 1.1275417 3.1975706
1.3415 1.1216 3.1975999
0.2345175 1.14595 3.1842752
0.95916998 1.1423 3.1975999
1.0994999 1.14 3.1996
1.1732 1.1424 3.1984999
1.2897929 1.1455214 3.191793
1.30335 1.1456749 3.1950002
0.97125 1.1791 3.1937001
1.1059 1.1794 3.1918001
1.1205 1.179 3.1918001
1.1826 1.1789 3.1889
1.2038 1.17935 3.1900501
1.25325 1.1795 3.1889999
1.2681 1.1797 3.1870999
1.3168334 1.1785332 3.1894331
1.3309751 1.178575 3.1900501
1.34245 1.1784999 3.18945
0.33824 1.1841999 3.1829998
0.34724 1.1905 3.1959
0.39947999 1.1932 3.1921999
0.40534499 1.1909667 3.1837666
0.45911667 1.1929667 3.1881332
0.59925497 1.1933 3.1860499
0.61730248 1.192625 3.1858001
0.62454593 1.1904399 3.19064
0.674375 1.1932249 3.1854999
0.69135052 1.1898315 3.1890845
0.70182002 1.1952 3.1886001
0.73085999 1.19145 3.1926999
0.75226152 1.1941692 3.1872613
0.76950425 1.1918334 3.1897666
0.81668001 1.1956999 3.188375
0.83090293 1.19182 3.18838
0.84443396 1.1918399 3.1891301
0.8931511 1.19195 3.1912198
0.9078142 1.1916317 3.1899576
0.92390662 1.1960666 3.1889
0.95617199 1.19434 3.18786
0.96995127 1.1894956 3.1874228
0.98711753 1.1900117 3.1896122
1.0367889 1.1925778 3.1871445
1.05019 1.1886848 3.1893353
1.0631125 1.189975 3.1920998
1.0992 1.1924 3.1848998
1.111481 1.1900619 3.1880624
1.131474 1.1889443 3.1904523
1.1772749 1.1861124 3.1888876
1.1909692 1.1896729 3.1877306
1.2051073 1.1907002 3.1889358
1.2395999 1.1924 3.1829
1.2515651 1.190685 3.1863701
1.2686371 1.1902184 3.1870668
1.2869174 1.188987 3.1927171
1.311481 1.1888809 3.1874478
1.3298345 1.1900483 3.1874688
1.3444642 1.1912571 3.1872787
0.69553 1.2009 3.1916001
0.77671003 1.20105 3.1887
0.83136004 1.2003666 3.1887667
0.84662497 1.2009001 3.1869998
0.97044003 1.2002499 3.1887002
0.98578 1.2023499 3.18625
1.1334 1.2 3.188
1.2582999 1.202 3.1849999
1.2601 1.201 3.1889
0.74109 0.91785002 3.2131
1.2476667 0.91077328 3.2112999
1.2115999 0.92641199 3.2109001
1.2899251 0.93539566 3.2070124
1.28775 0.94321251 3.2060249
0.70332998 0.97836 3.2017
0.92660999 0.9799 3.2014
1.0721 0.97930002 3.2011001
1.1440833 0.97393495 3.210233
1.21645 0.97920501 3.2098
0.41356498 0.99647748 3.20455
0.61751997 0.99610996 3.2147598
0.6320886 0.98881644 3.2118144
0.64078999 0.98286003 3.2054
0.69696003 0.99154204 3.2160199
0.70125246 0.98530996 3.21225
0.7735914 0.99235862 3.21102
0.78077495 0.98977 3.21015
0.83722335 0.99640673 3.2083499
0.84691328 0.99244434 3.2086554
0.91679001 0.99370241 3.2097502
0.92843002 0.98553002 3.2141249
0.99106556 0.99194425 3.2086222
1.05698 0.99746001 3.2086799
1.0661001 0.99074495 3.2114182
1.1353749 0.99414587 3.2105331
1.1431777 0.98579556 3.2090335
1.2101731 0.99170029 3.2082534
1.2216667 0.98513001 3.2073336
0.41134 1.001 3.2065001
0.6182 1.0016 3.2142999
0.66793001 1.0053 3.2049999
0.69370502 1.0021501 3.2135749
0.75861001 1.0055 3.2126
0.76304001 1.0036 3.2149398
0.83653831 1.0041667 3.2086003
0.89512998 1.0066 3.2026
0.91342998 1.00395 3.2095833
0.98458123 1.0036875 3.2102251
1.0563999 1.0025251 3.2101502
1.13016 1.0024401 3.2048199
1.1984 1.0034 3.2012501
1.2051375 1.0036 3.20965
0.98915404 1.0522999 3.2037799
1.0628198 1.05344 3.2027199
1.2104 1.0531499 3.20105
0.85876 1.0996 3.2
0.93174005 1.0989667 3.2024333
0.99967998 1.0997 3.2089
1.0013 1.0979666 3.2133
1.075 1.0998 3.2112
1.1512251 1.09755 3.202425
1.2176 1.0918 3.2137001
1.2234 1.0999 3.2054999
1.2978499 1.086475 3.2015502
0.62925714 1.1140857 3.2092426
0.69886667 1.1174001 3.2114
0.70460922 1.1141769 3.2085078
0.77482116 1.1146555 3.2064445
0.78077 1.11185 3.2076001
0.84946197 1.1109132 3.20872
0.916444 1.1165301 3.2095101
0.92561311 1.109823 3.2092617
0.99216628 1.1127459 3.2103083
1.00196 1.10532 3.2081001
1.0584 1.118 3.2084751
1.0690042 1.109804 3.2106001
1.1357166 1.1149751 3.2088585
1.1451 1.1077999 3.2070203
1.2116275 1.1120607 3.2088063
1.2220249 1.1018001 3.2042251
0.35137999 1.133 3.2133
0.41042 1.1231999 3.2177
0.625525 1.1227 3.2083001
0.67550749 1.134075 3.20625
0.68923998 1.1274824 3.2088468
0.75103748 1.1328499 3.2034626
0.76409507 1.1265084 3.2145414
0.81588501 1.13395 3.2026501
0.83041424 1.1305 3.2101569
0.84126002 1.1214 3.2156
0.89349401 1.13484 3.2017999
0.9059782 1.1293637 3.2078001
0.95781755 1.13405 3.2052252
0.97139293 1.1337286 3.2041857
0.982705 1.123075 3.2134252
1.0192 1.1339999 3.2079
1.0362666 1.1342167 3.204067
1.0551287 1.1271216 3.2099431
1.062 1.1228 3.2151999
1.0954599 1.1336 3.2033799
1.1066222 1.1353889 3.2057559
1.1291143 1.1257858 3.2122142
1.1752599 1.1358001 3.2034199
1.1896636 1.1294 3.2046273
1.20135 1.1217999 3.214
1.235225 1.136 3.2033999
1.2502061 1.133 3.2039998
1.2625 1.1307 3.2016001
1.3088375 1.133975 3.2041249
1.3258727 1.1341455 3.2027636
1.3413 1.1269 3.2014
0.81072003 1.1416 3.2019999
0.82508999 1.14095 3.2023501
0.89383334 1.1407334 3.2038333
1.173 1.1411999 3.2016501
1.253 1.1404999 3.2024
1.312 1.14 3.2000999
1.1342999 1.1777 3.2127666
1.1415 1.1798 3.2021999
1.2079667 1.1787333 3.2158334
0.63485503 1.1853 3.2039499
0.72186005 1.1902 3.20135
0.84403002 1.186025 3.2114
0.86221999 1.1892 3.207
0.99077672 1.1891333 3.2058334
1.0660501 1.18065 3.2059999
1.136775 1.1845001 3.2021501
1.2092857 1.1819714 3.2069716
0.69252002 0.89964002 3.2354
0.82423496 0.89563501 3.2397001
0.69242668 0.90239 3.2334664
0.70438999 0.90066999 3.23
1.1993999 0.94713998 3.2353001
0.46566001 0.99747002 3.2302001
0.61517334 0.99818325 3.2293835
0.62812996 0.99597502 3.2205
0.77261001 0.99229002 3.2230999
0.83563668 0.98908663 3.2343667
0.91483104 0.99486893 3.2254333
0.92286998 0.99132001 3.2212
0.98712283 0.99144715 3.2255998
1.0635667 0.99671668 3.2203999
1.1328143 0.99550146 3.2254002
1.2063 0.99467999 3.2246666
0.76636505 1.0028501 3.2234499
0.838485 1.0058501 3.22615
0.91253 1.0012 3.2298999
0.98626 1.0014 3.2235999
1.0584 1 3.2214999
0.84947503 1.0975 3.2237501
0.62642998 1.1183 3.2212
0.68945003 1.1183001 3.229075
0.70256996 1.11325 3.22175
0.771052 1.1175201 3.2285399
0.84502202 1.1094201 3.2233799
0.91059798 1.11884 3.2279201
0.92579335 1.1144832 3.2221498
0.9852125 1.1171583 3.2274666
1.0658909 1.1154727 3.2241907
1.135825 1.1178249 3.2246001
1.1404001 1.1124001 3.2221999
1.2051899 1.1170499 3.2265098
0.46787333 1.1285667 3.2245333
0.61421561 1.127389 3.2281444
0.62621999 1.12235 3.2214999
0.68745834 1.1272334 3.2303669
0.75876498 1.12375 3.22995
0.76661003 1.12795 3.2251501
0.83261901 1.1253901 3.2323902
0.905635 1.12551 3.22788
0.92286998 1.1210001 3.2276001
0.97808003 1.1252 3.2251501
0.98256755 1.1233001 3.2253749
1.0544333 1.1241666 3.2319331
1.0618 1.1210001 3.2311001
1.1325547 1.1262727 3.2254364
1.1975249 1.1248626 3.2307627
1.20165 1.1224251 3.2315497
1.13395 1.175 3.2251501
1.2134 1.1779 3.22
0.90649998 0.88734001 3.2509
1.11015 0.89235502 3.2428501
1.2565 0.88524002 3.2511001
1.2615 0.88478667 3.2494335
0.75600004 1.11685 3.24805
0.75417501 1.1217999 3.2469501
0.8326 1.1235 3.2406001
0.90486997 1.1230334 3.2484
0.98304003 1.1253999 3.2415333
1.1962 1.1249 3.2409
1.0394 0.87923998 3.2600999
1.11885 0.87786001 3.2624002
1.1239001 0.87807 3.2630999
1.2649001 0.87409669 3.2688
1.0394 0.88335001 3.2602
