# .PCD v0.7 - Point Cloud Data file format
VERSION 0.7
FIELDS x y z
SIZE 4 4 4
TYPE F F F
COUNT 1 1 1
WIDTH 122
HEIGHT 1
VIEWPOINT 0 0 0 1 0 0 0
POINTS 122
DATA ascii
0.41511601 0.69139993 0.51061201
0.43946499 0.68192005 0.51936001
0.45423999 0.68629003 0.51902997
0.36737999 0.69175333 0.52814168
0.41200337 0.69307828 0.52870333
0.43385336 0.68579 0.52948004
0.44771335 0.68157667 0.52644664
0.46203998 0.68649 0.52748007
0.37114 0.67983001 0.55969
0.45575249 0.67648494 0.55463248
0.46000999 0.67666 0.55974001
0.39836001 0.68997669 0.55394
0.40156502 0.688205 0.55086499
0.430152 0.68223202 0.54308999
0.454395 0.68107498 0.55268002
0.4614 0.68173999 0.55833
0.49605 0.69115001 0.55642998
0.38778001 0.67877001 0.57710999
0.41444668 0.67239666 0.57472664
0.42357668 0.67563003 0.57055998
0.4510971 0.67633355 0.56989789
0.46590501 0.67893499 0.56480503
0.36855751 0.68327999 0.56515503
0.39284909 0.68542272 0.57271463
0.401205 0.68568999 0.570485
0.42128 0.68372327 0.57361001
0.44569001 0.68229204 0.56521201
0.49215999 0.69493997 0.56149
0.35773998 0.67559749 0.59334999
0.37098858 0.67508 0.59493142
0.38799 0.67396557 0.59073889
0.4148975 0.677885 0.59458244
0.42714 0.67248338 0.5973267
0.45320696 0.67259598 0.588772
0.46158001 0.67470998 0.58502001
0.33815336 0.69625169 0.59521836
0.34427333 0.6919983 0.59141332
0.37761998 0.68377 0.58853
0.391514 0.68196595 0.58396804
0.41492999 0.68234998 0.58873999
0.33766499 0.70102 0.58578002
0.37801999 0.65969998 0.61997998
0.45274001 0.65868998 0.61527002
0.46736002 0.65904337 0.60807002
0.48776001 0.65213752 0.61524749
0.35348287 0.67461431 0.61287433
0.36868411 0.66866004 0.61237526
0.38729444 0.66667777 0.60945439
0.41060999 0.66874504 0.60812747
0.422685 0.67040002 0.60865498
0.451042 0.66640103 0.61073703
0.46495834 0.66719836 0.60733169
0.49187168 0.66960335 0.60914499
0.30763999 0.68699998 0.60601997
0.33466998 0.69307733 0.60982418
0.34356001 0.68421745 0.60804248
0.446715 0.57894999 0.63009
0.39572999 0.58494997 0.63700998
0.43430355 0.59434932 0.63588291
0.44670415 0.58881998 0.63102877
0.41648999 0.60001999 0.63739002
0.43178999 0.6044364 0.63059455
0.4551 0.63826501 0.62670505
0.46645999 0.63937002 0.63698
0.48791668 0.63530332 0.63240999
0.33812499 0.64920002 0.62527502
0.34582251 0.64959252 0.63440746
0.37229699 0.65689802 0.63321507
0.39435202 0.64792001 0.625494
0.43583003 0.65111601 0.63549995
0.449985 0.6527375 0.6271112
0.47380665 0.65147835 0.62765664
0.491465 0.65081501 0.6277675
0.334694 0.67460793 0.63087398
0.34673199 0.667364 0.62609202
0.3677457 0.66290861 0.62508857
0.39930999 0.66285002 0.62247998
0.33362213 0.68904001 0.6294843
0.36418 0.56826001 0.65720999
0.41613999 0.57579666 0.64182335
0.42693996 0.57354498 0.64206123
0.38480666 0.5824433 0.65704662
0.41459334 0.58344668 0.64043331
0.42804 0.58372003 0.64105999
0.37095332 0.60632664 0.64552999
0.38461 0.61703002 0.64639002
0.41926 0.616 0.65621001
0.40917 0.62818998 0.64743
0.433184 0.62623799 0.64462203
0.34379715 0.65510714 0.64443433
0.36860499 0.64984125 0.64436996
0.43590999 0.64819002 0.64067
0.44190001 0.64269334 0.64552337
0.33462501 0.67353326 0.65174741
0.3434 0.67918003 0.6451
0.33185917 0.6841175 0.6473617
0.34015 0.68043 0.64831001
0.34195751 0.53503752 0.67233747
0.35890001 0.57773 0.66905999
0.36591253 0.57209378 0.66880381
0.35907665 0.58440334 0.67263669
0.36268002 0.58443999 0.677405
0.35452598 0.61258996 0.67487395
0.32570001 0.62506998 0.66290998
0.35350883 0.62927443 0.66948998
0.36364499 0.62693501 0.66433001
0.33014998 0.65693665 0.67609334
0.331294 0.67565805 0.671588
0.33024856 0.68303287 0.66918427
0.35609165 0.56732661 0.68643832
0.36346 0.57189 0.69527
0.35609001 0.59463251 0.69398504
0.36201501 0.59188747 0.69286501
0.35228667 0.6045711 0.68976223
0.33509001 0.64356005 0.68430501
0.32706571 0.67638433 0.68654716
0.32342836 0.683065 0.68288499
0.35653999 0.55764997 0.70034999
0.35437801 0.58915401 0.70952803
0.36147001 0.59477001 0.70431
0.35367334 0.57598335 0.72185665
0.35646001 0.58306003 0.72025001
