# .PCD v0.7 - Point Cloud Data file format
VERSION 0.7
FIELDS x y z
SIZE 4 4 4
TYPE F F F
COUNT 1 1 1
WIDTH 137
HEIGHT 1
VIEWPOINT 0 0 0 1 0 0 0
POINTS 137
DATA ascii
0.31323999 0.55759001 0.72627997
0.33493501 0.54259002 0.75492001
0.34303334 0.54434663 0.75440001
0.31206 0.65574998 0.75757003
0.3098 0.66225332 0.76540327
0.30410498 0.56503999 0.79597497
0.29635999 0.59162998 0.79945999
0.31393498 0.65758002 0.78667998
0.31198999 0.66102999 0.78588998
0.37887001 0.85271335 0.78569669
0.30845165 0.56909579 0.81108254
0.29834333 0.59033328 0.80334997
0.30704251 0.58622009 0.81112331
0.29833999 0.61119998 0.81966001
0.30419749 0.60406995 0.81727248
0.29664001 0.643722 0.81121004
0.302645 0.64919496 0.80324996
0.31208238 0.5721482 0.83089405
0.32036 0.56235999 0.83657002
0.30672628 0.59165686 0.82787627
0.29809001 0.610425 0.82288003
0.302158 0.60510403 0.82381201
0.29710999 0.64179999 0.82027
0.31821799 0.55365199 0.842224
0.32168001 0.5560025 0.84720248
0.31408602 0.571684 0.84493697
0.32182249 0.57040995 0.84496999
0.3116391 0.59264183 0.85013086
0.32214999 0.59571999 0.85231
0.30798671 0.78889328 0.85193664
0.32751501 0.58173501 0.86313999
0.29051334 0.63680333 0.8750267
0.29334998 0.64304 0.87158
0.31523499 0.78671247 0.87108004
0.28627443 0.63558441 0.88845885
0.28712499 0.64051998 0.89122999
0.31924 0.78583002 0.88055003
0.27864 0.63780499 0.91477001
0.28195 0.63576001 0.91145003
0.34951332 0.80880332 0.93742007
0.26660252 0.64930248 0.94653994
0.34773335 0.81431669 0.95406336
0.25827 0.65928 0.97943002
0.26515666 0.65732336 0.96260667
0.25661001 0.66350669 0.97749335
0.2647475 0.66400248 0.96749997
0.35441336 0.82348996 0.96936005
0.25686502 0.66812497 0.98649752
0.33773336 0.82942337 0.9940967
0.35766 0.82880998 0.98080999
0.348445 0.83737999 1.0159
0.35104999 0.84122676 1.0156333
0.34921998 0.84461498 1.0303
0.051294088 0.66703391 1.0508957
0.35779142 0.85296285 1.0511
0.039894 0.67593998 1.0788
0.048779719 0.67006749 1.0702186
0.329065 0.84343499 1.0761499
0.35248336 0.85419005 1.0656667
0.35355499 0.86071503 1.0732501
0.03937 0.67221999 1.0998
0.049397275 0.66902 1.089461
0.037916001 0.68099999 1.0974
0.038516998 0.67755002 1.114
0.045676235 0.67219001 1.1085471
0.038227335 0.68215674 1.1125001
0.042374 0.68175 1.108
0.36377999 0.86509001 1.1178
0.045302272 0.67245728 1.1272
0.045093089 0.67279637 1.1501546
0.192002 0.72659403 1.1562799
0.043356001 0.67343998 1.1639
0.19189 0.72544497 1.16085
0.37364501 0.88734996 1.1781
0.37528002 0.88733006 1.1846
0.053085137 0.66598666 1.2093933
0.19046335 0.74615669 1.2042333
0.37871 0.89258999 1.2176
0.039097503 0.67663002 1.2369
0.050059266 0.6667527 1.2314334
0.19085 0.75744998 1.2285999
0.18818501 0.76131999 1.2341499
0.37793836 0.89382333 1.2295166
0.38135001 0.89239001 1.2241
0.039207 0.67685497 1.24155
0.048100103 0.66759634 1.2499527
0.19024999 0.76502001 1.2405
0.39750999 0.90373504 1.2509999
0.038973998 0.67536002 1.2778
0.048029497 0.6680963 1.2688438
0.17849499 0.77647001 1.2774
0.3727825 0.88801503 1.2730501
0.38014999 0.89561999 1.2612
0.038869247 0.67618752 1.2904501
0.048094708 0.66735995 1.2910379
0.04126 0.68176997 1.29005
0.1796 0.77610999 1.2818
0.18125001 0.77973002 1.2992001
0.1902 0.78457999 1.2927001
0.27509335 0.84286332 1.2976333
0.036924545 0.67637277 1.3098273
0.048763271 0.66633725 1.3106637
0.184195 0.78147 1.3031
0.047910053 0.66714054 1.3302801
0.047462497 0.66611254 1.3496249
0.38561332 0.9116677 1.3510222
0.047456034 0.66640222 1.3693306
0.37419498 0.90147501 1.37
0.39025497 0.91562158 1.3681334
0.048596848 0.66711348 1.3912548
0.39236501 0.91775501 1.3985
0.39703166 0.92582506 1.39535
0.050614003 0.6645112 1.4106113
0.31887999 0.86685008 1.4056667
0.39416 0.91684997 1.4091001
0.39521 0.92254257 1.4085374
0.40042001 0.92804003 1.4029
0.056974303 0.65642899 1.43239
0.048583101 0.66550308 1.4297475
0.39274001 0.91736335 1.4266334
0.39602375 0.92252004 1.4304
0.40112001 0.92844999 1.4369
0.05620553 0.65657997 1.4506923
0.047090497 0.66695547 1.4487
0.39431572 0.9154315 1.4494572
0.40149 0.91693997 1.4478
0.3953875 0.92081755 1.4494251
0.40116 0.92525798 1.4540399
0.056271747 0.6571188 1.4686375
0.046477765 0.66626477 1.4688762
0.39811999 0.91487998 1.4661
0.39743999 0.92228001 1.4662
0.05601709 0.65694183 1.4917365
0.046125315 0.66660839 1.4899685
0.37979001 0.91746002 1.5658
0.38056001 0.91773999 1.5697
0.37814999 0.92044002 1.5659
