# .PCD v0.7 - Point Cloud Data file format
VERSION 0.7
FIELDS x y z
SIZE 4 4 4
TYPE F F F
COUNT 1 1 1
WIDTH 278
HEIGHT 1
VIEWPOINT 0 0 0 1 0 0 0
POINTS 278
DATA ascii
0.054769084 0.65657413 1.5098833
0.045151263 0.66543996 1.5092841
0.056013938 0.65523869 1.529719
0.046387453 0.66542447 1.530265
0.055713069 0.65570861 1.5488716
0.045140501 0.66542941 1.5493561
0.05508237 0.65550995 1.5697107
0.045559581 0.66519207 1.569584
0.055193231 0.65545917 1.5917001
0.045460384 0.66565001 1.5908077
0.054796312 0.65585381 1.6091626
0.045136217 0.66440856 1.6082356
0.054959927 0.6546008 1.6282616
0.045435462 0.6647554 1.6300848
0.054585874 0.65531939 1.6499625
0.044837069 0.66433471 1.6479999
0.054962359 0.65432316 1.6701528
0.043945838 0.6656217 1.6677834
0.054080311 0.65508938 1.6886811
0.044849813 0.66409624 1.6903063
0.054790348 0.65231252 1.710675
0.046308823 0.66314292 1.7092237
0.054954793 0.65544671 1.7305332
0.045369845 0.66345608 1.7309844
0.054337781 0.65426451 1.7518611
0.045006 0.66394114 1.7485443
0.054770231 0.65314245 1.7707857
0.044562906 0.66438365 1.7716727
0.053847838 0.65327632 1.7902263
0.043972496 0.66340834 1.7876167
0.054147847 0.65372896 1.811884
0.044230748 0.66321582 1.8110251
0.053883303 0.65301824 1.8305258
0.044521 0.66352439 1.8303111
0.052124884 0.65314728 1.8504001
0.04328287 0.66277623 1.8488625
0.053310953 0.65294397 1.8704951
0.043751668 0.66333669 1.8699889
0.052821003 0.65353692 1.889715
0.062268127 0.64391255 1.8895125
0.043639898 0.66376102 1.8880602
0.053622007 0.65245956 1.9103286
0.062105004 0.64361876 1.9108875
0.043848999 0.66240335 1.9082334
0.052802898 0.65266746 1.929355
0.0619995 0.64344835 1.9260167
0.042978443 0.66341662 1.9283333
0.053756032 0.65140235 1.9484082
0.061810002 0.64213753 1.9473876
0.042873625 0.66308379 1.9467125
0.052275348 0.65215647 1.9709899
0.06273625 0.64218003 1.96875
0.042544998 0.66239852 1.9659427
0.054096542 0.65081006 1.9911249
0.062262859 0.64224857 1.9904
0.041777283 0.66189569 1.9913428
0.050850231 0.65233618 2.0098615
0.060565799 0.64354801 2.0081401
0.042783752 0.66188747 2.0098624
0.052074119 0.65113032 2.0300539
0.061752334 0.64132333 2.0248334
0.04204667 0.66411835 2.0271499
0.051036604 0.65147322 2.0507605
0.061303001 0.642672 2.0506999
0.044005498 0.66067499 2.0472999
0.05175025 0.65079916 2.0692654
0.062413204 0.64194399 2.0668399
0.042605668 0.6625033 2.0674834
0.059882 0.63957 2.0804
0.038075998 0.65898001 2.0941999
0.050579239 0.65121961 2.0898561
0.061986666 0.64159328 2.0891666
0.032033954 0.66877639 2.0899727
0.042048499 0.6613 2.08655
0.050985631 0.65133363 2.1092
0.062198602 0.64156002 2.1111798
0.042589404 0.66255802 2.1096802
0.039212 0.65691 2.1356001
0.050509453 0.65070587 2.129796
0.061676003 0.64210498 2.12485
0.041485 0.66102803 2.1279399
0.052299503 0.64918703 2.1494901
0.060428999 0.64116001 2.1515498
0.041220333 0.66174668 2.1501667
0.059443001 0.63878 2.1609001
0.04984628 0.6517787 2.1707244
0.061316337 0.64213663 2.1738
0.042539999 0.66051 2.1770999
0.059033498 0.63760996 2.1900501
0.038430497 0.65908498 2.19785
0.049840041 0.65111434 2.1908484
0.060550999 0.64191496 2.1910501
0.031030672 0.66790038 2.1908715
0.058718 0.63920999 2.2054
0.050764564 0.65025842 2.2102458
0.060483001 0.64121002 2.2003
0.041783001 0.660855 2.21015
0.057750501 0.63814497 2.2256
0.049027961 0.6519118 2.2299242
0.059101999 0.63933003 2.2523
0.039030001 0.65777999 2.2535
0.051084246 0.64889079 2.2505567
0.041115999 0.66099 2.2435
0.057808001 0.63828999 2.2764001
0.038948331 0.65875667 2.2717667
0.049809169 0.64919913 2.2685478
0.060572498 0.64072001 2.27215
0.058603 0.63653713 2.2894285
0.050045446 0.64894652 2.2891147
0.040605001 0.66031998 2.2914
0.058650501 0.63789999 2.3132
0.066083156 0.62898076 2.3096037
0.037583333 0.65923667 2.3115001
0.049983177 0.64979035 2.3096392
0.058711998 0.63741499 2.3262501
0.066532619 0.62855142 2.3311858
0.038554002 0.65872496 2.329875
0.049637742 0.64860493 2.3308504
0.040295999 0.66144001 2.3299999
0.059010498 0.63805002 2.3456001
0.065992571 0.62987143 2.3499379
0.0376895 0.65755999 2.3575501
0.049627651 0.64975923 2.3498521
0.057788666 0.63874668 2.368
0.066840284 0.6282959 2.3694818
0.037664998 0.65865666 2.3723333
0.049658354 0.64912194 2.3704925
0.057582397 0.63792205 2.3889203
0.066013582 0.62860006 2.3885791
0.036747999 0.65911496 2.3860998
0.049447101 0.64895755 2.3892002
0.030757563 0.66553438 2.3927062
0.059278335 0.63604665 2.4098332
0.065907173 0.6299417 2.4100695
0.037009999 0.65913993 2.4145334
0.048938446 0.64871562 2.41012
0.042112999 0.66033 2.4029
0.058306802 0.63778597 2.4296799
0.066557281 0.62809664 2.4303
0.038280003 0.65771002 2.42665
0.047957134 0.64979768 2.4304912
0.040490001 0.66210002 2.4335001
0.057484254 0.63899499 2.4486499
0.06520094 0.62869853 2.4492548
0.037948404 0.65681601 2.4501202
0.048204411 0.64912355 2.4493177
0.058553714 0.6375671 2.470243
0.065151118 0.62766939 2.4696391
0.039624002 0.65786999 2.4694335
0.049227048 0.64867282 2.4700503
0.040991999 0.66131997 2.4783001
0.058754001 0.63763833 2.4884999
0.065343134 0.62843162 2.4913709
0.037351999 0.65887249 2.4909501
0.048465367 0.64877331 2.4908831
0.058246002 0.63998997 2.5171001
0.064992838 0.62681234 2.5125618
0.039818998 0.65675998 2.5042
0.047738172 0.65039474 2.5098
0.0575656 0.63710999 2.52684
0.065239333 0.62699503 2.52965
0.036540799 0.65827602 2.5273602
0.048071533 0.64746863 2.5306096
0.055758625 0.63746506 2.5519001
0.064607166 0.62712324 2.5506575
0.035865668 0.65910333 2.5527666
0.047913212 0.64897144 2.548357
0.0572883 0.63727498 2.5683599
0.065356202 0.62710398 2.5705602
0.0384585 0.65763998 2.56635
0.047354314 0.64850873 2.5695438
0.056848001 0.63827837 2.5903502
0.063719131 0.62895328 2.5898399
0.036155999 0.65712577 2.5888286
0.049178336 0.64734137 2.5904601
0.056614667 0.636545 2.6087
0.063976392 0.62846535 2.6101308
0.037441 0.65758169 2.6124501
0.046393249 0.64899915 2.6099999
0.055475336 0.63693333 2.6267998
0.064900115 0.62865001 2.6309412
0.0367814 0.65726405 2.6294799
0.047444738 0.648004 2.6273265
0.057844669 0.63775998 2.6522334
0.065749086 0.6257391 2.6522093
0.037132218 0.65685105 2.649111
0.047557555 0.64601338 2.6477666
0.058155499 0.63703996 2.6719749
0.064201929 0.62780505 2.6696877
0.036491625 0.65728122 2.6681249
0.04817665 0.64653707 2.6703355
0.057678498 0.63815999 2.6898
0.064900212 0.62761354 2.6899929
0.037387751 0.65675998 2.6900251
0.046894003 0.64946181 2.6894591
0.029582383 0.66446149 2.6875613
0.056557905 0.636329 2.7096398
0.064823002 0.62653124 2.7096999
0.036532 0.6592775 2.7048001
0.046535559 0.64893275 2.7101774
0.028658889 0.66525006 2.7095778
0.055085499 0.63617164 2.7269166
0.064795502 0.62426752 2.7295628
0.038615 0.65695 2.7302501
0.046590474 0.6471886 2.7304332
0.058362901 0.63455999 2.7515099
0.064318374 0.62524629 2.7507501
0.037723999 0.65511501 2.75125
0.044806443 0.64701331 2.7497888
0.055558667 0.63799667 2.7671335
0.064834066 0.62561184 2.7688625
0.03229 0.65981001 2.7623
0.047206059 0.64781994 2.7685375
0.055539332 0.63552892 2.7911887
0.063988827 0.62786168 2.7839167
0.036398198 0.65708196 2.7927399
0.046472095 0.64780998 2.7893801
0.056600273 0.63437086 2.8058455
0.064326748 0.62469751 2.8102
0.034636665 0.65783167 2.8075168
0.046062566 0.64717489 2.8089426
0.072122507 0.61278498 2.8284688
0.055016749 0.63715994 2.8305497
0.066568747 0.62323248 2.8270249
0.036013331 0.65665001 2.8280888
0.049504455 0.64498997 2.8309271
0.028553 0.66436666 2.8325999
0.071861416 0.60983497 2.8495834
0.05609918 0.63389277 2.8502274
0.062727228 0.62682116 2.8522666
0.036534801 0.65638906 2.8498399
0.050105248 0.64435494 2.8503873
0.02726675 0.66554916 2.8505418
0.071580864 0.61084867 2.8664935
0.057243004 0.63105446 2.8705442
0.061115 0.62674999 2.8654001
0.035418332 0.65676999 2.8761332
0.043158568 0.64927572 2.8723855
0.027641667 0.66532332 2.8757164
0.072642103 0.61081851 2.8899047
0.056313571 0.63309002 2.894243
0.063432999 0.624865 2.8920834
0.037784502 0.65574503 2.8875
0.045000896 0.64713556 2.8891668
0.027620377 0.66508627 2.8888252
0.074046597 0.60872996 2.9082999
0.058150999 0.63246 2.9196999
0.063883997 0.62562501 2.910475
0.036795165 0.65607005 2.9099
0.046331502 0.64430875 2.9084125
0.070830919 0.61072534 2.9303536
0.055715568 0.63471282 2.9273429
0.063043669 0.62458163 2.9293334
0.035214715 0.65478998 2.9317145
0.045522887 0.64643335 2.9329221
0.073462501 0.608612 2.95135
0.055463854 0.63297856 2.9534569
0.061559286 0.62660855 2.9506431
0.039159499 0.65381503 2.9485002
0.045842711 0.64790291 2.9492569
0.073230907 0.60855001 2.97212
0.055907141 0.63184291 2.9711287
0.063496754 0.62301999 2.9702501
0.034816142 0.65648425 2.9693713
0.045190725 0.64686722 2.9705908
0.070431001 0.61348748 2.9887125
0.054781999 0.63460892 2.9879334
0.065915667 0.62055665 2.9939334
0.036875498 0.65589505 2.9908831
0.046833854 0.64478433 2.9892285
0.070360601 0.61285698 3.0081601
0.056409169 0.62924331 3.0129499
0.062352002 0.62378669 3.0089667
0.044652894 0.6476689 3.0103333
0.071193382 0.60873926 3.0296233
0.057282668 0.63164169 3.0262337
0.063217498 0.62385249 3.0262499
0.070930004 0.60872495 3.0418501
