# .PCD v0.7 - Point Cloud Data file format
VERSION 0.7
FIELDS x y z
SIZE 4 4 4
TYPE F F F
COUNT 1 1 1
WIDTH 80
HEIGHT 1
VIEWPOINT 0 0 0 1 0 0 0
POINTS 80
DATA ascii
1.1332875 0.83200753 0.27133375
1.133311 0.85208887 0.27161109
1.1359221 0.86975282 0.27286723
1.13116 0.91471803 0.27096698
1.1414 0.90918666 0.27613667
1.1302832 0.83702332 0.29356334
1.1330286 0.84732008 0.28854638
1.1415 0.85889 0.28218001
1.1389 0.87721997 0.29087999
1.1402 0.87695003 0.29117
1.1356 0.88286 0.29808
1.1328692 0.91116619 0.29131231
1.1423 0.90916002 0.2834425
1.1163999 0.92569178 0.28687179
1.1243874 0.92333871 0.29110748
1.1362 0.83950001 0.31419
1.13572 0.84351408 0.31215802
1.137 0.87765998 0.30254
1.1404001 0.87598002 0.30408999
1.1353251 0.88123 0.30124751
1.11795 0.91911995 0.30625999
1.1332222 0.91445225 0.31129718
1.1456667 0.90827674 0.31000334
1.1184 0.92828006 0.31124666
1.1239833 0.92439491 0.30989084
1.1332666 0.85543174 0.32729581
1.13185 0.86468244 0.33420998
1.1423999 0.87271333 0.32680333
1.1399 0.88042998 0.33656999
1.1447636 0.88461268 0.33204457
1.1343381 0.91268229 0.32736811
1.144875 0.908885 0.33572003
1.1166083 0.92741925 0.32932913
1.1258312 0.92446941 0.33081812
1.1374 0.86470002 0.35995999
1.1346259 0.91200686 0.34896293
1.1420666 0.90609998 0.35106
1.115725 0.92713499 0.35311753
1.126155 0.9244526 0.35111454
1.1370499 0.86429501 0.363635
1.1346999 0.89859998 0.37907001
1.15 0.89450663 0.37827003
1.1353333 0.9134506 0.36897197
1.1445601 0.90895003 0.37194797
1.1176091 0.92538279 0.36892089
1.1275363 0.92370361 0.36953631
1.1155 0.91825998 0.39291
1.134925 0.91420007 0.39089814
1.1426624 0.90969247 0.39202753
1.1172 0.92583668 0.38932112
1.1278399 0.92249203 0.38824931
1.1612999 0.89565003 0.40856001
1.1365125 0.91307759 0.40918684
1.1463 0.90743625 0.41256875
1.1601 0.9066 0.40503001
1.1177335 0.92599893 0.41050109
1.1282625 0.92521751 0.41122314
1.1366 0.89488333 0.4346
1.14285 0.89740002 0.425715
1.1171 0.91908997 0.43309
1.1356817 0.91580087 0.42867365
1.1422946 0.91076219 0.42798263
1.1165286 0.92424434 0.4328886
1.1276263 0.92469418 0.43113256
1.1171 0.91868001 0.44534999
1.1350923 0.91434389 0.45378998
1.1422374 0.91220373 0.44739872
1.1146286 0.92237717 0.44441858
1.1290909 0.92215538 0.4493759
1.1328579 0.91479325 0.47016808
1.1406 0.90921003 0.46180001
1.1176889 0.9283278 0.4693867
1.1264412 0.92346287 0.4704394
1.1303142 0.91649717 0.48667574
1.1179166 0.92539996 0.48588002
1.1277934 0.92377198 0.49212199
1.1187201 0.92832804 0.517542
1.12594 0.92573619 0.5096572
1.1164285 0.92689425 0.52917713
1.1221 0.93091202 0.52668399
