# .PCD v0.7 - Point Cloud Data file format
VERSION 0.7
FIELDS x y z
SIZE 4 4 4
TYPE F F F
COUNT 1 1 1
WIDTH 92
HEIGHT 1
VIEWPOINT 0 0 0 1 0 0 0
POINTS 92
DATA ascii
0.15714499 0.20638999 2.7590001
0.038451001 0.19712 2.7797999
0.15566 0.20448001 2.776
0.16743 0.20513666 2.7681
0.17766 0.19987001 2.7914
0.173259 0.20423301 2.7909298
0.039574001 0.19485 2.8190999
0.185862 0.199476 2.8116598
0.168235 0.20307 2.802
0.18533 0.20132001 2.8066001
0.038487501 0.1962 2.8297501
0.041817501 0.19427 2.835825
0.18649668 0.19699001 2.8278666
0.17407501 0.20304 2.8320999
0.176642 0.19879399 2.84796
0.18731779 0.19447444 2.8520331
0.14932999 0.203005 2.8572001
0.17102601 0.20172799 2.8528399
0.19113 0.19362666 2.8725669
0.17309 0.20094 2.8745
0.038679503 0.19528 2.89485
0.042535998 0.18533999 2.8867249
0.19249 0.19626999 2.8880751
0.24988499 0.20384499 2.8887
0.0431954 0.18638198 2.9112599
0.19392668 0.19690667 2.9059
0.215505 0.19635999 2.9091501
0.166556 0.20256801 2.9110198
0.24853 0.20207 2.9008
0.0390305 0.19483501 2.9274001
0.042925 0.18635333 2.9308999
0.16866 0.19747999 2.9256001
0.19255748 0.19281499 2.9323249
0.20164499 0.19490999 2.9345999
0.24363001 0.19959 2.9263
0.150975 0.20381999 2.9291999
0.16948999 0.20354001 2.9268334
0.24133 0.2001 2.9219999
0.27132502 0.2022225 2.9354751
0.038918 0.19372 2.9454
0.042832877 0.18782124 2.9510748
0.17648667 0.19770001 2.9519999
0.18241 0.19869 2.9552999
0.22069 0.19884001 2.9577999
0.25380999 0.19889 2.9542
0.16944 0.20218 2.9544001
0.27434 0.20132667 2.9536998
0.037751999 0.19422999 2.9731002
0.041152 0.18092 2.9798999
0.17553334 0.19725335 2.9772003
0.18669 0.19723 2.9644001
0.242955 0.1994525 2.9735751
0.23777001 0.20018999 2.9703
0.24287 0.20231999 2.9786999
0.26612002 0.20327 2.9638
0.302145 0.20125 2.9721
0.16966666 0.19823666 2.9857333
0.20479 0.19840001 2.9853001
0.25187001 0.19889 2.9844999
0.16659999 0.20126002 2.9956999
0.20282501 0.20123 2.9865999
0.25102001 0.20113 2.9851
0.26655 0.20185 2.9837
0.28766 0.200755 2.9931002
0.042580746 0.1763975 3.0118248
0.037297498 0.19135499 3.0176501
0.20983334 0.19785666 3.0087335
0.22438 0.19854 3.00665
0.28647 0.19752169 3.0122499
0.24917501 0.20069501 3.0099502
0.28847 0.20066001 3.0071001
0.30535001 0.20288999 3.0104001
0.043119498 0.17671999 3.0230999
0.041878499 0.18654001 3.03175
0.153115 0.19787249 3.0302501
0.16708 0.19857 3.0395
0.21178798 0.19786401 3.02772
0.25003999 0.19828001 3.0358
0.28885001 0.19904 3.0362999
0.203455 0.20032999 3.0232501
0.24704 0.20006999 3.0348001
0.29276749 0.20078251 3.0373499
0.039599001 0.18731 3.0457001
0.042812999 0.1886 3.0467999
0.1573 0.19844 3.0517001
0.21651 0.19714001 3.0432
0.27723667 0.19924332 3.0452001
0.28927001 0.19873333 3.0459335
0.21058001 0.200775 3.0413001
0.25329 0.20025 3.0486
0.27963001 0.20141999 3.0455999
0.29637498 0.20179999 3.049
