# .PCD v0.7 - Point Cloud Data file format
VERSION 0.7
FIELDS x y z
SIZE 4 4 4
TYPE F F F
COUNT 1 1 1
WIDTH 176
HEIGHT 1
VIEWPOINT 0 0 0 1 0 0 0
POINTS 176
DATA ascii
0.43210211 1.2500286 2.2968354
0.43593812 1.269775 2.2948561
0.43643814 1.2908938 2.2954936
0.43622819 1.3102273 2.2965181
0.436425 1.3295666 2.2961416
0.44143 1.3369 2.2909
0.43661705 1.35068 2.2971201
0.4411 1.3577 2.2955999
0.42467001 1.3614 2.2990999
0.42760003 1.2395 2.3118
0.43091628 1.2504815 2.3110814
0.43322563 1.2709345 2.3097467
0.43350306 1.2906414 2.3084931
0.43574777 1.311637 2.3094964
0.43678427 1.3300267 2.3093119
0.43520081 1.3504771 2.3095434
0.44121999 1.35444 2.3109601
0.42365998 1.361025 2.303
0.42445499 1.237 2.333225
0.43051937 1.2507001 2.329639
0.43213499 1.26996 2.33073
0.43322256 1.2910935 2.328506
0.43490219 1.3104252 2.3290102
0.43565848 1.33105 2.3287032
0.41611499 1.3592 2.3285499
0.43550712 1.3516501 2.3304374
0.44066 1.3513666 2.3261669
0.41477001 1.3602999 2.325
0.42276999 1.36105 2.33865
0.42576 1.2386333 2.3469
0.43084818 1.2511939 2.3506429
0.43196291 1.2699641 2.3497818
0.43331894 1.2897189 2.3499808
0.43466651 1.3097688 2.3496864
0.43492177 1.3293484 2.3497243
0.41674 1.3577 2.3571999
0.43636554 1.3502289 2.3499868
0.44192001 1.3533001 2.3489001
0.41714001 1.3608 2.3592999
0.431245 1.36085 2.3480501
0.43018931 1.2495357 2.3709247
0.43110687 1.269594 2.3705564
0.43336457 1.2899001 2.3698194
0.43418679 1.3100144 2.3702881
0.4337101 1.330844 2.3699322
0.4041875 1.3588251 2.369575
0.43468854 1.3507332 2.3704515
0.441035 1.3492 2.3742499
0.40123999 1.3602999 2.3606
0.42715001 1.2383001 2.3980498
0.42984965 1.2494333 2.3911936
0.43285796 1.2704161 2.3903799
0.43264025 1.2895303 2.3899665
0.43372649 1.3096902 2.3910868
0.43446568 1.3304865 2.3904428
0.4075 1.3591 2.3901
0.43620104 1.3505105 2.3905792
0.42596498 1.23895 2.4096
0.42987823 1.2503318 2.4102092
0.4308053 1.2688779 2.409903
0.43259031 1.2889371 2.4088893
0.43423584 1.308774 2.410115
0.43466905 1.3311934 2.4104733
0.41088572 1.3580856 2.4148288
0.43452927 1.3512731 2.4103231
0.44144002 1.3522202 2.4098802
0.4059 1.3606 2.4119
0.42870668 1.2388667 2.4300334
0.43002495 1.2504845 2.4295032
0.43151599 1.2715564 2.4284658
0.4320775 1.2909287 2.4297071
0.43298131 1.3105966 2.4304318
0.43437964 1.3307885 2.4305117
0.40399501 1.3573999 2.4298
0.43339038 1.3495678 2.429611
0.44034499 1.35095 2.4324002
0.42543501 1.237525 2.448225
0.42951924 1.250474 2.4494998
0.43209922 1.2699593 2.4487
0.43230391 1.2894357 2.4513822
0.43375269 1.3095731 2.4493158
0.43529901 1.3304194 2.4498837
0.43354198 1.3509567 2.4506965
0.42785999 1.2385 2.4661
0.42926583 1.2511419 2.4701676
0.43050563 1.2696298 2.4695899
0.43259716 1.2911 2.4697356
0.4333677 1.3098868 2.4685805
0.43444031 1.3293537 2.4699032
0.40846333 1.3575667 2.4725335
0.43119335 1.3496121 2.4702361
0.41723001 1.3601 2.4763
0.42340598 1.2362001 2.4888802
0.42974305 1.2492043 2.4912958
0.43041426 1.270443 2.489943
0.43176854 1.2897074 2.4887667
0.43282107 1.3092251 2.4906714
0.43294901 1.3288033 2.4893677
0.39675 1.3587 2.4892001
0.41392252 1.356725 2.4956751
0.43331757 1.3486558 2.488472
0.42640996 1.2359999 2.5155334
0.42935467 1.2498785 2.5094891
0.43019822 1.2695564 2.5091
0.43156525 1.2898999 2.5099685
0.43288958 1.3102423 2.509969
0.43278933 1.3300211 2.5100925
0.39006799 1.35712 2.5079799
0.41631332 1.3549 2.5043666
0.43373099 1.3498666 2.5086567
0.42442501 1.2363501 2.5273752
0.42937371 1.2497222 2.529063
0.43135664 1.27011 2.5294964
0.43149894 1.2902793 2.5304141
0.43161476 1.3091704 2.5288665
0.43342403 1.3290887 2.5290818
0.40529299 1.35574 2.5300899
0.43361202 1.3468299 2.530205
0.42588499 1.2375833 2.5474
0.42878684 1.2501 2.5484591
0.43167815 1.2705518 2.5489666
0.43184999 1.2891535 2.5503538
0.43225116 1.3100241 2.5504522
0.43332154 1.3295639 2.5487361
0.38726285 1.3574001 2.5482144
0.41184142 1.3541998 2.5496714
0.43299574 1.3483808 2.5504231
0.42447001 1.2377 2.5603001
0.42902467 1.2510314 2.5688529
0.43021044 1.2704192 2.5698962
0.43075603 1.2899086 2.5690346
0.43249702 1.3091302 2.5691931
0.43222088 1.328878 2.569978
0.38750249 1.3561 2.5713
0.41333666 1.3565665 2.5712166
0.4328658 1.349169 2.569869
0.41898334 1.2365333 2.5931332
0.42309666 1.2377332 2.5897
0.42711228 1.2497001 2.5894909
0.42973083 1.2699392 2.5910521
0.43085042 1.2889543 2.5908501
0.43103763 1.309736 2.5912597
0.43300599 1.3295201 2.5895078
0.40895668 1.3555666 2.5952332
0.43332046 1.3472334 2.5904047
0.41736999 1.2322 2.6163001
0.42506 1.2381999 2.615
0.4279857 1.2493681 2.609488
0.42857665 1.2691258 2.6095667
0.4303259 1.2894181 2.6115322
0.43242964 1.3093927 2.6104248
0.4322252 1.3302999 2.611316
0.39793998 1.3561001 2.6071501
0.4137533 1.3546667 2.6106334
0.43232813 1.3467438 2.6097624
0.41987997 1.23355 2.6313
0.42304748 1.2372749 2.6285999
0.42695394 1.2499175 2.6299827
0.42909896 1.2686967 2.6301
0.43052697 1.2903435 2.6292171
0.43037719 1.30888 2.6300483
0.43169299 1.3308002 2.62922
0.40830749 1.3532751 2.62925
0.4320614 1.3488183 2.6285682
0.41959 1.2385 2.6431999
0.42364803 1.23788 2.6481998
0.42802048 1.2487949 2.6489947
0.43019551 1.2709206 2.6491897
0.4296141 1.2904668 2.6507037
0.43202263 1.310926 2.6479406
0.43101558 1.3298445 2.6494298
0.41641331 1.3526 2.6511667
0.43283266 1.3467791 2.6472788
0.42840499 1.29485 2.6614499
0.42534 1.3024001 2.6609502
0.430435 1.32585 2.6624501
